ncols         292
nrows         75
xllcorner     800180
yllcorner     -2105230
cellsize      2000
NODATA_value  -9999
-9999 -9999 -9999 -9999 -9999 -9999 -9999 -9999 -9999 -9999 -9999 -9999 -9999 -9999 -9999 -9999 -9999 -9999 -9999 -9999 -9999 455 486 279 221 195 210 224 188 166 144 134 123 124 116 122 126 131 141 155 169 212 171 175 410 452 354 623 463 314 378 415 375 202 182 145 78 64 63 60 56 58 63 61 67 69 47 44 38 32 29 27 25 24 20 20 21 21 22 22 22 22 23 23 24 24 24 24 23 23 22 21 24 25 26 27 30 32 36 62 80 56 44 41 39 36 39 38 36 39 42 38 34 30 25 22 23 29 23 20 20 20 17 14 11 10 11 9 10 11 12 10 10 11 12 11 14 46 57 25 18 11 11 11 10 11 10 10 10 11 10 11 11 12 12 12 13 14 17 26 45 72 78 84 89 78 58 43 42 44 46 45 56 83 99 113 108 87 51 47 71 116 91 110 67 25 18 17 18 19 23 22 17 17 17 18 34 28 21 17 17 18 18 17 18 18 16 14 18 23 35 59 73 86 75 94 107 106 115 96 77 73 70 63 62 65 68 75 73 77 74 71 77 81 75 77 94 118 124 118 118 127 132 130 134 117 132 137 127 128 144 152 131 127 144 142 157 160 172 202 267 238 247 282 318 223 -9999 -9999 -9999 -9999 -9999 -9999 -9999 -9999 -9999 -9999 -9999 -9999 -9999 -9999 -9999 -9999 -9999 -9999 -9999 -9999 -9999 -9999 -9999 -9999 -9999 -9999
-9999 -9999 -9999 -9999 -9999 -9999 -9999 -9999 -9999 -9999 -9999 -9999 -9999 -9999 -9999 -9999 -9999 -9999 -9999 -9999 -9999 529 418 268 230 204 219 253 232 175 156 143 129 131 139 145 155 172 262 241 336 381 444 342 285 258 224 285 377 379 307 252 224 157 96 115 154 106 93 88 86 87 86 77 76 82 68 52 45 37 32 28 28 24 21 20 21 22 23 24 24 24 24 24 25 25 26 26 25 32 36 38 37 39 42 33 31 34 45 206 193 79 56 50 46 46 50 50 50 50 52 48 44 35 31 26 31 32 23 21 22 22 20 15 13 11 11 10 11 10 11 10 9 11 12 20 27 157 157 56 16 10 11 11 10 10 10 10 11 11 11 11 11 12 12 13 14 14 18 34 56 78 84 96 99 84 63 44 43 48 48 49 51 68 84 98 87 51 37 34 73 72 72 59 13 14 13 13 15 15 15 16 17 17 18 19 22 36 17 14 15 14 15 13 15 14 15 20 30 37 56 72 60 61 72 79 88 95 107 92 75 67 63 63 63 66 76 81 89 95 84 75 77 77 80 80 96 114 118 110 124 124 123 119 124 129 135 130 129 136 141 133 129 138 134 141 144 149 170 194 216 239 253 250 251 243 -9999 -9999 -9999 -9999 -9999 -9999 -9999 -9999 -9999 -9999 -9999 -9999 -9999 -9999 -9999 -9999 -9999 -9999 -9999 -9999 -9999 -9999 -9999 -9999 -9999 -9999
-9999 -9999 -9999 -9999 -9999 -9999 -9999 -9999 -9999 -9999 -9999 -9999 -9999 -9999 -9999 -9999 -9999 -9999 -9999 -9999 -9999 -9999 372 280 235 228 240 292 274 218 166 138 134 151 171 196 230 400 584 580 747 642 668 434 264 234 228 195 180 171 224 345 229 228 223 214 190 158 235 213 233 242 203 200 123 77 69 68 47 40 35 30 31 23 21 21 22 22 24 24 24 26 25 26 26 26 27 29 34 49 57 78 69 103 97 36 33 37 65 223 175 121 140 83 57 71 66 71 93 73 74 61 65 47 47 45 38 32 26 24 23 23 21 17 15 12 11 10 10 10 11 9 9 9 9 13 51 156 198 119 16 9 10 10 10 10 10 10 11 11 11 11 11 12 12 13 14 15 21 40 56 74 91 101 93 75 62 45 44 46 50 50 52 57 64 71 70 38 32 29 49 51 22 15 16 16 18 14 12 14 14 13 13 14 10 12 13 13 14 15 16 18 21 19 22 22 31 40 55 69 73 57 48 63 84 105 111 109 114 94 72 64 62 63 66 73 81 95 119 116 104 86 77 77 98 81 86 95 96 100 111 115 113 122 122 119 123 129 130 128 124 121 130 132 136 138 139 145 156 174 203 237 218 200 254 -9999 -9999 -9999 -9999 -9999 -9999 -9999 -9999 -9999 -9999 -9999 -9999 -9999 -9999 -9999 -9999 -9999 -9999 -9999 -9999 -9999 -9999 -9999 -9999 -9999 -9999 -9999
-9999 -9999 -9999 -9999 -9999 -9999 -9999 -9999 -9999 -9999 -9999 -9999 -9999 -9999 -9999 -9999 -9999 -9999 -9999 -9999 -9999 -9999 -9999 280 304 286 305 269 215 197 196 144 148 178 234 401 630 626 981 918 904 787 519 333 325 317 260 224 207 182 308 181 119 304 351 330 308 266 249 215 198 199 242 400 295 124 104 102 91 42 37 34 36 40 30 24 23 24 24 26 26 27 27 27 27 28 27 33 51 71 80 79 55 49 36 35 40 54 126 105 195 229 188 159 72 168 142 129 106 76 89 82 161 124 66 69 47 32 28 27 26 24 21 17 16 12 10 9 10 10 10 8 9 10 9 17 39 65 62 64 15 10 9 9 10 10 10 11 11 11 11 11 11 12 12 13 15 16 22 36 56 72 102 94 86 64 58 53 46 51 50 53 55 55 56 63 52 28 27 23 38 36 16 14 14 15 16 15 18 17 18 19 18 15 18 19 17 18 17 17 17 17 19 18 20 21 23 40 50 65 63 47 53 72 77 87 103 130 135 88 73 64 63 65 67 74 87 112 138 118 105 82 76 85 99 102 107 113 112 116 105 110 111 113 122 129 134 134 136 133 132 133 137 142 146 144 140 146 158 175 200 228 197 -9999 -9999 -9999 -9999 -9999 -9999 -9999 -9999 -9999 -9999 -9999 -9999 -9999 -9999 -9999 -9999 -9999 -9999 -9999 -9999 -9999 -9999 -9999 -9999 -9999 -9999 -9999 -9999 -9999
-9999 -9999 -9999 -9999 -9999 -9999 -9999 -9999 -9999 -9999 -9999 -9999 -9999 -9999 -9999 -9999 -9999 -9999 -9999 -9999 -9999 -9999 -9999 -9999 386 345 259 197 203 176 198 146 189 295 509 667 867 940 1018 1069 979 793 484 373 489 527 412 285 264 200 162 140 125 130 140 140 156 160 178 192 201 209 220 423 362 179 139 159 157 92 41 38 35 40 35 27 28 26 25 30 30 28 28 29 28 28 30 54 162 178 56 45 39 37 36 52 130 51 132 202 228 267 255 152 100 252 307 285 264 145 192 214 146 210 54 49 39 33 31 29 26 23 20 18 19 17 11 11 10 9 9 9 8 9 11 41 26 33 33 27 11 8 9 9 10 11 11 11 11 10 11 11 11 12 12 13 14 19 24 31 50 62 73 78 73 60 68 66 63 68 60 64 63 62 62 56 40 38 23 17 25 19 16 14 14 14 14 14 15 14 16 17 18 16 17 18 16 16 17 17 17 17 18 20 19 22 22 40 68 62 56 39 48 71 100 98 102 114 115 91 73 63 69 66 61 72 101 122 159 129 104 89 86 86 91 111 111 112 115 118 116 125 123 124 127 128 132 131 127 128 133 137 139 141 144 144 146 150 158 185 228 235 -9999 -9999 -9999 -9999 -9999 -9999 -9999 -9999 -9999 -9999 -9999 -9999 -9999 -9999 -9999 -9999 -9999 -9999 -9999 -9999 -9999 -9999 -9999 -9999 -9999 -9999 -9999 -9999 -9999 -9999
-9999 -9999 -9999 -9999 -9999 -9999 -9999 -9999 -9999 -9999 -9999 -9999 -9999 -9999 -9999 -9999 -9999 -9999 -9999 -9999 -9999 -9999 -9999 -9999 -9999 -9999 224 246 309 259 161 166 263 441 688 722 922 1042 889 867 830 755 716 517 797 827 635 295 217 185 154 139 133 141 154 162 162 168 183 201 224 230 372 340 246 202 207 186 154 200 71 45 41 36 33 32 38 39 34 41 43 30 29 30 30 30 39 91 159 61 48 40 40 42 40 46 60 44 43 51 61 56 59 58 61 74 114 163 179 208 267 325 210 121 51 44 38 34 32 31 27 24 21 20 27 26 14 12 12 10 9 9 10 8 9 107 24 20 18 15 9 8 8 9 8 10 11 10 10 11 11 11 11 12 12 13 13 15 22 25 33 43 45 55 58 71 81 87 91 88 79 79 75 73 62 45 36 28 25 18 18 13 15 14 14 14 14 14 14 14 15 15 16 15 16 16 16 17 22 20 19 24 24 25 23 22 22 28 36 42 47 32 48 69 88 106 91 90 97 76 65 62 61 61 63 98 135 173 174 120 100 89 87 88 88 112 113 114 115 118 115 120 124 125 127 130 129 126 124 128 131 129 132 135 140 142 146 150 158 176 -9999 -9999 -9999 -9999 -9999 -9999 -9999 -9999 -9999 -9999 -9999 -9999 -9999 -9999 -9999 -9999 -9999 -9999 -9999 -9999 -9999 -9999 -9999 -9999 -9999 -9999 -9999 -9999 -9999 -9999 -9999 -9999
-9999 -9999 -9999 -9999 -9999 -9999 -9999 -9999 -9999 -9999 -9999 -9999 -9999 -9999 -9999 -9999 -9999 -9999 -9999 -9999 -9999 -9999 -9999 -9999 -9999 -9999 245 277 414 306 180 177 317 601 688 813 831 943 760 727 731 955 1120 766 832 742 613 340 215 182 168 154 150 158 171 176 181 182 188 207 228 251 454 296 197 241 202 247 312 318 317 77 48 41 38 42 47 63 64 40 38 33 31 30 32 36 90 138 61 52 44 43 45 45 45 45 46 45 46 46 48 50 52 56 60 64 68 70 67 65 70 105 103 58 45 40 37 34 33 31 28 30 23 21 22 20 16 15 14 13 11 11 10 8 9 27 21 16 11 8 7 7 8 8 8 11 11 10 9 10 10 11 11 12 12 13 13 14 18 21 23 26 31 44 57 81 99 104 109 116 114 108 93 75 61 44 34 26 19 17 17 10 17 15 14 15 15 14 15 14 14 14 15 14 15 17 21 30 37 44 23 29 33 33 41 30 21 24 23 27 26 39 64 75 106 74 72 87 93 67 60 59 61 62 72 115 138 144 153 117 102 102 96 90 91 96 104 108 112 115 116 121 121 126 125 121 122 123 121 125 127 -9999 -9999 -9999 -9999 -9999 -9999 -9999 -9999 -9999 -9999 -9999 -9999 -9999 -9999 -9999 -9999 -9999 -9999 -9999 -9999 -9999 -9999 -9999 -9999 -9999 -9999 -9999 -9999 -9999 -9999 -9999 -9999 -9999 -9999 -9999 -9999 -9999 -9999 -9999 -9999 -9999
-9999 -9999 -9999 -9999 -9999 -9999 -9999 -9999 -9999 -9999 -9999 -9999 -9999 -9999 -9999 -9999 -9999 -9999 -9999 -9999 -9999 -9999 -9999 -9999 -9999 -9999 -9999 337 435 319 230 218 407 614 780 818 734 740 703 722 744 911 937 1038 857 977 853 351 235 201 201 199 171 171 187 204 207 200 199 210 221 243 429 239 157 219 199 224 256 343 410 319 115 48 43 48 51 59 80 50 37 34 32 32 34 40 93 67 55 49 45 47 50 51 52 53 51 49 49 52 52 53 54 58 62 64 63 62 60 58 55 52 48 45 44 41 39 37 35 32 31 28 26 24 22 21 19 18 19 19 15 12 10 8 8 9 15 15 9 8 8 7 8 8 8 9 10 9 9 10 10 11 11 12 12 13 13 16 16 18 18 21 33 49 68 95 116 132 134 131 146 137 121 103 85 50 32 24 26 26 17 9 16 14 15 15 14 15 17 20 22 16 15 15 16 17 28 43 49 55 44 33 40 54 51 52 38 26 24 28 30 51 57 63 69 66 84 92 88 68 60 58 60 59 95 118 115 129 129 144 123 126 105 97 98 95 98 113 113 119 119 123 123 122 117 119 117 116 121 119 121 -9999 -9999 -9999 -9999 -9999 -9999 -9999 -9999 -9999 -9999 -9999 -9999 -9999 -9999 -9999 -9999 -9999 -9999 -9999 -9999 -9999 -9999 -9999 -9999 -9999 -9999 -9999 -9999 -9999 -9999 -9999 -9999 -9999 -9999 -9999 -9999 -9999 -9999 -9999 -9999 -9999
-9999 -9999 -9999 -9999 -9999 -9999 -9999 -9999 -9999 -9999 -9999 -9999 -9999 -9999 -9999 -9999 -9999 -9999 -9999 -9999 -9999 -9999 -9999 -9999 -9999 -9999 -9999 -9999 375 295 215 392 551 621 788 737 714 701 720 753 942 1063 680 699 645 667 915 438 253 217 282 218 192 189 206 222 217 212 214 216 226 246 374 185 137 219 197 220 195 214 285 296 261 117 81 72 173 146 134 78 44 34 32 34 35 41 63 82 58 52 52 53 56 57 58 61 60 58 55 61 60 58 60 62 65 68 66 65 63 61 58 55 51 50 48 45 43 41 39 37 34 32 29 26 24 23 21 20 20 21 21 35 17 10 8 8 8 10 10 9 9 8 8 8 7 8 8 10 9 11 11 11 11 12 13 13 13 14 14 16 16 23 40 54 72 103 118 136 136 129 136 141 128 112 81 64 46 54 63 67 24 12 14 14 15 14 14 17 19 36 50 42 34 19 18 18 35 52 51 52 46 35 42 56 60 64 67 54 42 38 29 29 41 48 76 89 88 107 93 68 60 61 68 81 91 88 100 106 131 159 145 143 143 108 101 94 96 101 103 110 121 123 117 116 116 118 120 120 121 116 -9999 -9999 -9999 -9999 -9999 -9999 -9999 -9999 -9999 -9999 -9999 -9999 -9999 -9999 -9999 -9999 -9999 -9999 -9999 -9999 -9999 -9999 -9999 -9999 -9999 -9999 -9999 -9999 -9999 -9999 -9999 -9999 -9999 -9999 -9999 -9999 -9999 -9999 -9999 -9999 -9999 -9999
-9999 -9999 -9999 -9999 -9999 -9999 -9999 -9999 -9999 -9999 -9999 -9999 -9999 -9999 -9999 -9999 -9999 -9999 -9999 -9999 -9999 -9999 -9999 -9999 -9999 -9999 -9999 -9999 -9999 390 309 422 525 627 613 756 797 732 843 836 990 1321 933 695 537 447 498 335 265 236 254 234 202 233 226 220 212 210 218 215 226 250 182 162 135 148 149 211 192 211 206 146 139 106 119 129 193 84 67 66 43 35 34 36 37 51 56 116 71 65 61 64 65 66 76 75 93 97 106 91 75 76 73 73 70 72 70 69 66 63 61 57 55 53 51 53 48 45 45 43 39 35 32 30 27 25 24 21 22 31 42 79 23 18 8 8 9 8 9 8 9 9 8 8 8 7 9 10 10 11 12 12 12 12 13 13 13 13 14 18 22 22 33 46 69 90 103 120 126 124 124 132 123 94 74 57 59 63 68 77 47 22 14 16 15 15 14 16 19 36 63 76 66 53 29 20 35 52 52 50 45 41 45 48 54 62 70 72 64 50 27 35 41 49 68 92 72 92 75 69 64 62 60 77 80 73 82 91 125 145 153 160 136 106 99 87 100 98 93 96 104 104 111 116 118 120 123 120 117 109 -9999 -9999 -9999 -9999 -9999 -9999 -9999 -9999 -9999 -9999 -9999 -9999 -9999 -9999 -9999 -9999 -9999 -9999 -9999 -9999 -9999 -9999 -9999 -9999 -9999 -9999 -9999 -9999 -9999 -9999 -9999 -9999 -9999 -9999 -9999 -9999 -9999 -9999 -9999 -9999 -9999 -9999
-9999 -9999 -9999 -9999 -9999 -9999 -9999 -9999 -9999 -9999 -9999 -9999 -9999 -9999 -9999 -9999 -9999 -9999 -9999 -9999 -9999 -9999 -9999 -9999 -9999 -9999 -9999 -9999 -9999 823 501 339 625 567 609 686 862 729 674 988 974 1238 1398 1261 968 576 312 298 259 241 228 278 246 221 237 216 207 207 214 284 313 187 143 165 195 150 149 143 165 179 194 127 86 78 74 65 56 47 42 40 39 38 38 38 47 45 52 79 94 98 91 81 82 98 195 169 190 229 172 87 96 153 181 178 133 91 75 72 69 68 66 65 59 58 56 54 52 53 51 48 42 38 35 32 29 26 24 24 47 50 47 28 31 22 11 8 9 9 8 8 9 9 7 9 8 8 8 9 10 11 12 13 13 12 13 13 13 14 15 20 25 30 35 48 60 76 89 97 106 105 105 105 103 84 54 37 45 51 34 38 21 15 19 13 15 16 15 15 22 33 66 96 97 75 39 25 27 46 52 53 47 40 45 52 55 53 63 69 73 56 31 32 34 34 49 65 60 62 55 78 75 58 55 61 63 63 71 92 116 114 132 124 99 87 93 93 96 93 90 98 114 103 108 110 114 119 121 115 115 104 -9999 -9999 -9999 -9999 -9999 -9999 -9999 -9999 -9999 -9999 -9999 -9999 -9999 -9999 -9999 -9999 -9999 -9999 -9999 -9999 -9999 -9999 -9999 -9999 -9999 -9999 -9999 -9999 -9999 -9999 -9999 -9999 -9999 -9999 -9999 -9999 -9999 -9999 -9999 -9999 -9999 -9999
-9999 -9999 -9999 -9999 -9999 -9999 -9999 -9999 -9999 -9999 -9999 -9999 -9999 -9999 -9999 -9999 -9999 -9999 -9999 -9999 -9999 -9999 -9999 -9999 -9999 -9999 -9999 -9999 944 1089 634 516 793 643 584 604 613 565 600 687 684 847 1055 1079 1072 729 320 270 237 225 221 217 218 207 201 203 205 207 278 378 259 189 164 139 127 113 112 120 90 84 134 96 76 66 65 57 47 43 40 42 41 40 43 43 68 57 52 68 84 96 182 257 138 223 332 378 314 185 189 140 99 132 166 227 121 109 79 78 77 71 65 65 65 64 60 59 62 60 58 52 47 42 39 35 32 29 27 26 39 75 77 28 28 19 12 8 8 9 9 9 9 10 8 8 8 9 10 10 11 11 12 13 13 12 13 13 13 13 14 19 22 23 26 33 42 57 68 66 82 81 80 69 66 71 52 35 18 17 14 14 15 13 15 15 15 15 14 17 25 34 54 78 90 61 34 27 30 46 50 48 41 41 44 46 51 62 54 65 72 52 44 56 39 37 34 35 38 43 47 72 92 66 57 57 67 59 70 77 77 85 90 88 79 76 83 96 95 93 94 95 114 109 101 106 111 112 111 112 110 -9999 -9999 -9999 -9999 -9999 -9999 -9999 -9999 -9999 -9999 -9999 -9999 -9999 -9999 -9999 -9999 -9999 -9999 -9999 -9999 -9999 -9999 -9999 -9999 -9999 -9999 -9999 -9999 -9999 -9999 -9999 -9999 -9999 -9999 -9999 -9999 -9999 -9999 -9999 -9999 -9999 -9999 -9999
-9999 -9999 -9999 -9999 -9999 -9999 -9999 -9999 -9999 -9999 -9999 -9999 -9999 -9999 -9999 -9999 -9999 -9999 -9999 -9999 -9999 -9999 -9999 -9999 -9999 -9999 -9999 769 807 904 671 806 712 623 611 588 598 576 465 487 462 505 599 602 481 376 287 260 240 221 219 212 199 193 188 190 203 221 380 257 257 276 225 258 232 221 135 93 107 92 91 65 67 57 61 56 54 58 54 46 44 58 146 157 68 51 50 54 63 123 208 353 322 238 451 441 323 238 172 234 106 115 106 95 87 85 86 92 92 84 72 74 69 68 66 67 70 68 66 56 51 47 43 38 35 32 30 28 29 60 55 25 18 17 13 11 10 7 8 10 10 10 10 9 7 11 11 11 11 12 13 13 12 12 12 12 12 13 14 15 17 18 22 25 28 39 46 53 58 55 61 55 48 46 37 29 17 14 14 14 16 11 15 17 16 17 15 17 26 32 40 59 70 55 31 29 29 47 47 41 37 45 46 48 48 66 54 57 72 55 41 65 57 51 44 46 39 37 52 82 82 63 53 52 54 56 71 80 73 74 75 72 70 71 76 81 86 92 101 101 109 99 103 104 -9999 -9999 104 100 103 -9999 -9999 -9999 -9999 -9999 -9999 -9999 -9999 -9999 -9999 -9999 -9999 -9999 -9999 -9999 -9999 -9999 -9999 -9999 -9999 -9999 -9999 -9999 -9999 -9999 -9999 -9999 -9999 -9999 -9999 -9999 -9999 -9999 -9999 -9999 -9999 -9999 -9999 -9999 -9999 -9999 -9999 -9999
-9999 -9999 -9999 -9999 -9999 -9999 -9999 -9999 -9999 -9999 -9999 -9999 -9999 -9999 -9999 -9999 -9999 -9999 -9999 -9999 -9999 -9999 -9999 -9999 -9999 -9999 693 678 702 709 769 943 814 604 594 598 615 597 501 396 365 393 395 399 332 295 259 247 240 231 248 220 206 195 186 183 269 415 245 317 410 339 338 332 308 228 180 163 174 141 77 159 174 126 90 60 103 106 79 65 66 52 131 287 189 64 52 54 59 72 100 135 230 268 294 360 294 193 163 120 99 111 99 97 95 93 101 114 117 116 105 86 76 81 79 76 77 77 69 74 57 52 48 43 38 35 33 30 29 30 27 23 18 15 21 16 12 9 9 9 11 10 9 8 8 28 11 11 12 14 13 13 12 12 12 12 12 13 14 15 16 16 17 20 25 33 39 40 40 38 43 44 35 31 27 25 25 20 14 15 14 10 13 16 15 20 16 17 20 24 36 37 46 60 35 32 31 40 41 41 37 43 49 51 58 65 57 64 66 51 51 57 62 55 65 61 63 49 44 72 74 53 54 58 64 68 76 78 73 66 64 64 63 -9999 71 76 81 -9999 97 105 -9999 -9999 -9999 -9999 -9999 -9999 -9999 -9999 -9999 -9999 -9999 -9999 -9999 -9999 -9999 -9999 -9999 -9999 -9999 -9999 -9999 -9999 -9999 -9999 -9999 -9999 -9999 -9999 -9999 -9999 -9999 -9999 -9999 -9999 -9999 -9999 -9999 -9999 -9999 -9999 -9999 -9999 -9999 -9999 -9999 -9999 -9999 -9999 -9999 -9999 -9999 -9999
-9999 -9999 -9999 -9999 -9999 -9999 -9999 -9999 -9999 -9999 -9999 -9999 -9999 -9999 -9999 -9999 -9999 -9999 -9999 -9999 -9999 -9999 -9999 -9999 -9999 -9999 642 560 590 624 744 730 675 666 614 613 648 629 551 422 357 330 356 336 309 273 252 237 236 254 247 218 202 197 210 195 265 322 297 350 479 411 387 329 304 298 198 249 255 193 119 230 220 221 184 92 121 170 152 93 60 84 82 93 121 80 62 59 61 65 85 91 135 236 250 241 237 144 116 110 106 118 108 110 100 101 131 214 181 127 101 89 92 105 105 96 86 85 77 74 69 72 56 47 42 38 35 33 28 25 23 21 19 24 38 25 16 11 11 10 10 10 9 8 9 10 8 11 15 14 13 13 12 12 12 12 13 14 15 15 16 16 16 17 22 30 35 32 31 31 37 39 33 27 32 37 33 30 22 17 11 17 15 15 13 19 16 19 24 24 34 32 39 50 32 30 36 44 43 39 36 40 50 54 64 65 58 67 66 55 62 66 78 58 80 77 65 42 50 73 53 51 54 64 59 57 66 67 62 59 59 -9999 -9999 -9999 -9999 -9999 -9999 -9999 -9999 -9999 -9999 -9999 -9999 -9999 -9999 -9999 -9999 -9999 -9999 -9999 -9999 -9999 -9999 -9999 -9999 -9999 -9999 -9999 -9999 -9999 -9999 -9999 -9999 -9999 -9999 -9999 -9999 -9999 -9999 -9999 -9999 -9999 -9999 -9999 -9999 -9999 -9999 -9999 -9999 -9999 -9999 -9999 -9999 -9999 -9999 -9999 -9999 -9999 -9999 -9999 -9999 -9999
-9999 -9999 -9999 -9999 -9999 -9999 -9999 -9999 -9999 -9999 -9999 -9999 -9999 -9999 -9999 -9999 -9999 -9999 -9999 -9999 -9999 -9999 -9999 -9999 -9999 -9999 -9999 572 594 660 604 720 900 962 743 667 685 596 408 354 347 317 318 312 288 268 254 256 252 245 226 214 209 237 400 438 343 291 404 470 420 466 427 369 367 331 265 200 314 293 143 278 248 265 190 137 156 159 138 108 79 103 202 84 104 91 72 72 70 68 69 81 142 262 202 144 110 117 137 138 147 139 123 111 105 117 152 238 202 123 100 95 117 169 149 118 102 105 91 83 75 68 62 52 45 40 38 37 28 24 24 22 22 27 33 26 17 14 12 9 9 9 8 8 9 8 8 15 15 12 12 13 12 12 14 16 17 14 15 15 15 15 15 16 18 25 32 29 25 29 28 30 31 31 43 41 35 36 24 15 9 16 16 14 14 16 21 35 44 40 43 30 30 30 29 30 41 42 43 38 37 44 49 53 64 66 68 68 72 57 71 84 104 88 92 71 47 40 59 54 47 45 45 51 48 50 55 55 56 58 61 63 -9999 -9999 -9999 -9999 -9999 -9999 -9999 -9999 -9999 -9999 -9999 -9999 -9999 -9999 -9999 -9999 -9999 -9999 -9999 -9999 -9999 -9999 -9999 -9999 -9999 -9999 -9999 -9999 -9999 -9999 -9999 -9999 -9999 -9999 -9999 -9999 -9999 -9999 -9999 -9999 -9999 -9999 -9999 -9999 -9999 -9999 -9999 -9999 -9999 -9999 -9999 -9999 -9999 -9999 -9999 -9999 -9999 -9999 -9999 -9999
-9999 -9999 -9999 -9999 -9999 -9999 -9999 -9999 -9999 -9999 -9999 -9999 -9999 -9999 -9999 -9999 -9999 -9999 -9999 -9999 -9999 -9999 -9999 -9999 -9999 -9999 -9999 576 506 552 633 688 736 837 848 600 419 378 345 321 321 306 297 306 286 263 269 280 281 256 226 221 242 398 664 600 514 479 507 591 454 470 501 416 383 351 280 137 248 216 116 255 316 240 186 196 255 229 157 104 141 134 157 74 89 110 99 93 82 80 76 76 156 267 124 103 113 194 345 390 232 151 127 115 112 135 282 369 289 135 143 113 131 200 145 120 159 204 125 114 113 99 78 59 50 44 41 39 32 26 25 29 28 23 24 20 16 14 10 9 9 9 9 10 10 8 9 11 11 12 13 13 16 18 21 27 20 15 15 15 14 15 15 16 17 20 28 28 24 27 22 31 27 34 44 44 51 47 20 13 9 15 15 15 14 24 48 55 57 66 60 55 31 29 29 30 36 35 36 36 39 44 48 52 61 70 81 94 83 69 73 82 115 117 101 68 54 43 45 42 43 49 45 46 54 58 64 60 57 58 61 65 68 -9999 -9999 -9999 -9999 -9999 -9999 -9999 -9999 -9999 -9999 -9999 -9999 -9999 -9999 -9999 -9999 -9999 -9999 -9999 -9999 -9999 -9999 -9999 -9999 -9999 -9999 -9999 -9999 -9999 -9999 -9999 -9999 -9999 -9999 -9999 -9999 -9999 -9999 -9999 -9999 -9999 -9999 -9999 -9999 -9999 -9999 -9999 -9999 -9999 -9999 -9999 -9999 -9999 -9999 -9999 -9999 -9999 -9999 -9999
-9999 -9999 -9999 -9999 -9999 -9999 -9999 -9999 -9999 -9999 -9999 -9999 -9999 -9999 -9999 -9999 -9999 -9999 -9999 -9999 -9999 -9999 -9999 -9999 -9999 -9999 540 549 492 520 662 762 870 850 681 474 359 339 325 321 315 313 307 289 285 273 275 287 314 253 237 254 463 547 628 598 574 583 591 594 573 493 609 572 439 251 133 116 160 117 112 252 255 222 205 221 204 154 139 218 226 163 157 98 90 113 166 140 104 91 87 80 95 142 104 108 209 416 756 682 240 149 127 118 121 140 395 442 578 287 249 154 134 176 142 123 146 316 190 282 272 146 92 64 53 47 46 37 31 31 32 32 29 25 24 20 18 15 12 9 9 10 10 9 8 7 8 11 11 12 13 20 41 30 26 33 21 14 14 14 15 15 16 18 19 20 25 27 23 27 17 22 17 34 40 45 47 43 24 10 13 16 16 14 16 30 65 83 82 71 66 69 36 29 29 31 33 39 36 35 39 44 48 53 59 70 98 132 109 81 81 99 118 134 118 78 64 67 49 42 46 54 60 59 62 71 71 68 65 59 60 61 66 74 -9999 -9999 -9999 -9999 -9999 -9999 -9999 -9999 -9999 -9999 -9999 -9999 -9999 -9999 -9999 -9999 -9999 -9999 -9999 -9999 -9999 -9999 -9999 -9999 -9999 -9999 -9999 -9999 -9999 -9999 -9999 -9999 -9999 -9999 -9999 -9999 -9999 -9999 -9999 -9999 -9999 -9999 -9999 -9999 -9999 -9999 -9999 -9999 -9999 -9999 -9999 -9999 -9999 -9999 -9999 -9999 -9999 -9999
-9999 -9999 -9999 -9999 -9999 -9999 -9999 -9999 -9999 -9999 -9999 -9999 -9999 -9999 -9999 -9999 -9999 -9999 -9999 -9999 -9999 -9999 -9999 -9999 -9999 -9999 477 513 443 482 575 719 891 1109 978 727 435 369 356 339 325 323 303 322 307 285 291 280 289 273 277 353 640 662 595 576 573 568 571 589 568 548 580 671 371 179 144 133 124 113 128 384 456 327 154 124 141 201 211 356 171 163 165 199 154 109 236 203 127 109 125 95 87 91 98 233 575 679 632 615 205 142 129 134 162 216 350 513 700 504 632 466 325 200 305 218 174 202 189 463 253 98 78 66 55 51 48 37 35 36 35 32 30 27 27 22 18 15 13 12 9 9 10 9 8 7 7 8 9 12 13 26 40 27 21 24 17 14 11 14 15 14 14 16 20 20 23 22 17 18 13 12 14 25 29 31 30 30 22 12 15 15 14 13 20 41 74 96 73 73 59 51 41 29 32 47 44 52 45 36 37 43 47 51 61 76 90 127 111 85 115 166 140 138 109 83 82 73 64 64 56 53 65 75 74 86 81 77 64 61 65 66 73 73 -9999 -9999 -9999 -9999 -9999 -9999 -9999 -9999 -9999 -9999 -9999 -9999 -9999 -9999 -9999 -9999 -9999 -9999 -9999 -9999 -9999 -9999 -9999 -9999 -9999 -9999 -9999 -9999 -9999 -9999 -9999 -9999 -9999 -9999 -9999 -9999 -9999 -9999 -9999 -9999 -9999 -9999 -9999 -9999 -9999 -9999 -9999 -9999 -9999 -9999 -9999 -9999 -9999 -9999 -9999 -9999 -9999 -9999
-9999 -9999 -9999 -9999 -9999 -9999 -9999 -9999 -9999 -9999 -9999 -9999 -9999 -9999 -9999 -9999 -9999 -9999 -9999 -9999 -9999 -9999 -9999 -9999 -9999 -9999 402 413 383 465 558 676 838 1080 1164 938 634 498 430 360 330 312 319 352 321 307 332 296 281 305 496 618 639 629 573 553 554 561 594 562 588 606 566 659 395 304 304 310 258 148 167 441 403 207 150 159 254 318 289 257 145 302 267 219 240 169 174 307 270 185 219 109 94 96 123 371 548 579 549 597 190 146 142 176 344 446 485 484 701 736 828 778 753 336 159 161 139 136 138 231 137 85 73 63 57 57 46 44 45 40 40 35 31 29 25 21 19 17 18 16 9 10 10 9 7 7 7 7 9 13 14 24 17 14 13 12 12 14 11 11 13 10 9 10 13 13 13 15 14 12 12 12 12 16 18 25 26 22 17 11 16 14 14 14 30 68 89 95 74 53 49 58 38 29 30 46 62 53 43 38 39 41 45 48 55 66 84 123 108 99 162 197 167 147 121 98 80 71 67 65 58 69 73 92 100 104 102 85 69 68 70 77 79 69 69 -9999 -9999 -9999 -9999 -9999 -9999 -9999 -9999 -9999 -9999 -9999 -9999 -9999 -9999 -9999 -9999 -9999 -9999 -9999 -9999 -9999 -9999 -9999 -9999 -9999 -9999 -9999 -9999 -9999 -9999 -9999 -9999 -9999 -9999 -9999 -9999 -9999 -9999 -9999 -9999 -9999 -9999 -9999 -9999 -9999 -9999 -9999 -9999 -9999 -9999 -9999 -9999 -9999 -9999 -9999 -9999 -9999
-9999 -9999 -9999 -9999 -9999 -9999 -9999 -9999 -9999 -9999 -9999 -9999 -9999 -9999 -9999 -9999 -9999 -9999 -9999 -9999 -9999 -9999 -9999 -9999 -9999 -9999 -9999 343 339 428 503 594 683 793 750 817 961 832 592 397 340 331 408 471 396 337 317 297 296 409 600 665 573 557 551 567 579 589 589 646 633 737 668 608 574 534 657 637 435 327 261 338 464 500 303 415 537 338 266 181 172 327 215 222 328 283 140 226 376 351 340 168 116 105 128 255 445 471 759 473 183 171 176 289 634 471 654 759 595 685 764 888 927 602 165 116 105 107 104 96 87 78 69 61 61 56 52 50 47 42 38 35 32 28 26 23 21 19 17 15 8 9 8 8 7 7 7 7 9 13 14 16 13 12 13 13 12 12 10 9 9 9 9 9 10 11 11 14 13 12 12 12 12 12 17 22 17 15 15 10 14 14 18 22 28 64 77 80 71 47 29 36 53 31 31 41 60 57 52 38 36 38 40 45 52 60 73 95 92 101 148 182 162 127 154 111 92 74 66 63 68 75 98 114 141 135 127 101 85 79 76 76 73 65 -9999 -9999 -9999 -9999 -9999 -9999 -9999 -9999 -9999 -9999 -9999 -9999 -9999 -9999 -9999 -9999 -9999 -9999 -9999 -9999 -9999 -9999 -9999 -9999 -9999 -9999 -9999 -9999 -9999 -9999 -9999 -9999 -9999 -9999 -9999 -9999 -9999 -9999 -9999 -9999 -9999 -9999 -9999 -9999 -9999 -9999 -9999 -9999 -9999 -9999 -9999 -9999 -9999 -9999 -9999 -9999 -9999 -9999
-9999 -9999 -9999 -9999 -9999 -9999 -9999 -9999 -9999 -9999 -9999 -9999 -9999 -9999 -9999 -9999 -9999 -9999 -9999 -9999 -9999 -9999 -9999 -9999 -9999 -9999 323 300 307 417 612 778 809 829 789 965 1303 1296 749 472 449 553 890 982 752 565 363 309 326 593 674 596 558 544 562 575 598 646 614 612 660 780 754 616 706 822 859 797 743 538 483 600 718 763 590 443 314 158 120 111 225 314 193 235 405 287 123 155 286 403 405 296 238 159 111 250 401 467 628 517 370 391 308 325 718 637 940 1004 811 877 791 576 496 401 142 113 99 93 90 88 82 74 67 62 58 55 52 48 45 41 39 36 33 30 28 26 23 19 18 14 9 8 7 7 7 7 7 8 12 12 19 13 11 11 11 9 9 9 9 9 9 9 10 11 12 13 12 13 15 13 13 12 13 16 16 16 15 15 15 9 13 14 15 24 26 50 56 51 35 31 22 23 43 37 37 38 47 60 48 38 33 34 38 43 64 79 101 120 92 88 114 138 145 170 178 150 112 74 64 63 82 107 98 132 153 178 145 114 101 91 78 73 68 61 -9999 -9999 -9999 -9999 -9999 -9999 -9999 -9999 -9999 -9999 -9999 -9999 -9999 -9999 -9999 -9999 -9999 -9999 -9999 -9999 -9999 -9999 -9999 -9999 -9999 -9999 -9999 -9999 -9999 -9999 -9999 -9999 -9999 -9999 -9999 -9999 -9999 -9999 -9999 -9999 -9999 -9999 -9999 -9999 -9999 -9999 -9999 -9999 -9999 -9999 -9999 -9999 -9999 -9999 -9999 -9999 -9999 -9999
-9999 -9999 -9999 -9999 -9999 -9999 -9999 -9999 -9999 -9999 -9999 -9999 -9999 -9999 -9999 -9999 -9999 -9999 -9999 -9999 -9999 -9999 -9999 -9999 -9999 -9999 308 274 280 373 534 765 896 886 969 1168 1436 1416 915 651 911 1123 1376 1380 1360 956 545 379 409 510 581 586 542 545 562 591 630 629 627 673 701 658 699 725 645 855 954 961 964 908 853 878 895 785 472 294 197 133 113 120 328 343 155 326 356 220 204 197 188 211 243 224 296 222 110 131 224 318 361 464 555 596 537 484 692 977 1353 1291 1063 998 936 604 274 162 127 113 111 108 88 80 76 71 67 63 60 65 52 49 46 42 39 36 34 32 30 28 25 21 19 15 10 8 8 8 7 8 9 8 9 10 26 11 10 11 9 9 9 9 9 9 11 12 13 15 12 13 13 13 15 14 13 13 13 14 15 15 13 16 13 11 13 17 22 29 39 40 29 23 19 19 19 17 22 19 23 30 39 39 31 30 32 34 40 45 65 81 102 130 103 79 85 103 127 187 186 144 129 88 76 66 81 104 128 155 195 180 133 118 109 89 82 72 69 58 -9999 -9999 -9999 -9999 -9999 -9999 -9999 -9999 -9999 -9999 -9999 -9999 -9999 -9999 -9999 -9999 -9999 -9999 -9999 -9999 -9999 -9999 -9999 -9999 -9999 -9999 -9999 -9999 -9999 -9999 -9999 -9999 -9999 -9999 -9999 -9999 -9999 -9999 -9999 -9999 -9999 -9999 -9999 -9999 -9999 -9999 -9999 -9999 -9999 -9999 -9999 -9999 -9999 -9999 -9999 -9999 -9999 -9999
-9999 -9999 -9999 -9999 -9999 -9999 -9999 -9999 -9999 -9999 -9999 -9999 -9999 -9999 -9999 -9999 -9999 -9999 -9999 -9999 -9999 -9999 -9999 -9999 -9999 -9999 292 257 260 346 483 546 488 539 711 1027 1339 1342 1296 994 1270 1202 1240 1377 1454 1012 818 548 523 565 555 546 544 558 564 592 594 620 700 672 635 685 829 833 873 736 956 1088 1113 1134 1144 1075 913 814 656 436 287 152 117 170 445 314 154 280 425 257 237 195 295 226 201 244 206 156 120 118 142 187 358 563 607 513 695 548 909 1036 1445 1610 1344 1169 1190 845 493 524 381 264 127 98 89 82 75 71 67 63 61 62 56 50 47 45 41 38 35 32 28 25 22 19 19 15 13 8 9 9 8 9 10 10 7 9 9 9 10 10 10 9 9 9 11 12 12 11 13 11 14 10 9 8 10 11 12 14 14 12 10 13 12 15 12 13 14 39 62 57 49 39 31 25 19 18 17 17 20 18 21 23 28 28 26 26 32 34 41 48 65 110 129 123 95 70 72 77 107 165 146 111 106 85 74 72 84 120 137 163 199 167 158 125 110 91 77 70 66 62 -9999 -9999 -9999 -9999 -9999 -9999 -9999 -9999 -9999 -9999 -9999 -9999 -9999 -9999 -9999 -9999 -9999 -9999 -9999 -9999 -9999 -9999 -9999 -9999 -9999 -9999 -9999 -9999 -9999 -9999 -9999 -9999 -9999 -9999 -9999 -9999 -9999 -9999 -9999 -9999 -9999 -9999 -9999 -9999 -9999 -9999 -9999 -9999 -9999 -9999 -9999 -9999 -9999 -9999 -9999 -9999 -9999 -9999
-9999 -9999 -9999 -9999 -9999 -9999 -9999 -9999 -9999 -9999 -9999 -9999 -9999 -9999 -9999 -9999 -9999 -9999 -9999 -9999 -9999 -9999 -9999 -9999 -9999 -9999 291 255 257 340 505 657 341 374 613 727 1026 1217 1244 1076 1304 1022 1096 1173 1127 972 788 806 638 550 591 545 533 547 562 572 573 609 598 620 730 736 781 921 911 887 892 1079 1086 1122 1088 1119 1103 995 893 576 315 161 166 178 509 368 192 206 388 273 243 158 371 388 236 299 284 268 157 130 134 224 348 519 613 468 642 504 698 898 1303 1514 1546 1416 1405 1050 861 829 478 399 206 103 88 81 78 75 69 67 65 60 55 51 46 43 41 39 35 32 29 25 22 20 18 17 14 9 9 8 9 9 10 10 8 8 8 10 11 10 10 9 9 11 11 11 11 13 11 16 16 15 14 16 17 17 15 15 14 14 15 11 12 14 16 16 22 54 87 89 71 51 38 30 21 17 17 17 19 19 22 21 22 25 23 24 26 31 42 51 88 110 115 89 80 63 58 64 82 127 106 86 83 79 79 84 99 125 142 176 133 148 164 142 116 80 63 64 59 -9999 -9999 -9999 -9999 -9999 -9999 -9999 -9999 -9999 -9999 -9999 -9999 -9999 -9999 -9999 -9999 -9999 -9999 -9999 -9999 -9999 -9999 -9999 -9999 -9999 -9999 -9999 -9999 -9999 -9999 -9999 -9999 -9999 -9999 -9999 -9999 -9999 -9999 -9999 -9999 -9999 -9999 -9999 -9999 -9999 -9999 -9999 -9999 -9999 -9999 -9999 -9999 -9999 -9999 -9999 -9999 -9999 -9999 -9999
-9999 -9999 -9999 -9999 -9999 -9999 -9999 -9999 -9999 -9999 -9999 -9999 -9999 -9999 -9999 -9999 -9999 -9999 -9999 -9999 -9999 -9999 -9999 -9999 -9999 -9999 -9999 277 266 304 416 342 238 253 412 699 1186 1102 1151 1034 1154 897 846 1157 956 922 772 682 678 622 572 541 523 532 547 545 595 631 641 699 658 745 787 946 867 910 916 957 1036 1119 1057 1041 1079 1087 1038 787 479 349 449 287 536 435 232 238 362 453 373 197 242 396 292 263 379 329 200 155 131 186 291 399 525 431 486 412 405 638 761 1096 1271 1361 1194 1005 1108 746 272 128 120 98 88 83 82 77 73 70 66 68 55 52 47 43 38 36 33 30 28 26 22 20 17 17 15 10 9 9 9 9 10 9 8 10 10 11 10 10 11 11 11 11 11 11 12 9 13 16 13 13 13 14 15 14 13 13 13 13 13 15 16 17 13 14 22 36 74 94 86 65 40 23 20 17 17 17 17 18 20 20 21 21 21 22 23 27 43 59 85 79 84 84 71 63 57 60 80 94 75 62 69 73 66 70 88 114 142 156 119 140 136 113 103 82 64 72 60 -9999 -9999 -9999 -9999 -9999 -9999 -9999 -9999 -9999 -9999 -9999 -9999 -9999 -9999 -9999 -9999 -9999 -9999 -9999 -9999 -9999 -9999 -9999 -9999 -9999 -9999 -9999 -9999 -9999 -9999 -9999 -9999 -9999 -9999 -9999 -9999 -9999 -9999 -9999 -9999 -9999 -9999 -9999 -9999 -9999 -9999 -9999 -9999 -9999 -9999 -9999 -9999 -9999 -9999 -9999 -9999 -9999 -9999 -9999
-9999 -9999 -9999 -9999 -9999 -9999 -9999 -9999 -9999 -9999 -9999 -9999 -9999 -9999 -9999 -9999 -9999 -9999 -9999 -9999 -9999 -9999 -9999 -9999 -9999 -9999 -9999 -9999 316 351 308 205 265 318 595 1090 1177 962 931 998 913 844 786 1077 939 817 847 593 592 585 600 545 532 531 537 555 609 610 615 691 707 742 846 904 843 906 982 919 978 1052 983 1015 1041 1091 1096 1062 819 613 754 512 553 481 295 332 272 529 537 318 195 270 331 346 562 464 368 230 157 151 190 225 310 321 421 326 211 248 415 805 1131 1231 832 664 814 559 226 127 102 98 93 90 85 78 74 71 66 61 56 51 47 44 39 36 33 28 24 23 21 20 18 16 15 10 9 9 9 9 9 10 10 13 12 11 9 11 11 11 11 11 11 11 13 8 15 13 12 12 12 13 13 12 12 13 13 13 13 13 14 16 12 12 16 26 45 78 89 71 42 23 18 17 17 17 17 17 18 20 21 21 20 20 21 26 34 42 61 49 70 62 50 51 54 57 83 73 69 49 55 53 57 55 73 99 115 124 109 127 107 97 82 87 85 80 75 -9999 -9999 -9999 -9999 -9999 -9999 -9999 -9999 -9999 -9999 -9999 -9999 -9999 -9999 -9999 -9999 -9999 -9999 -9999 -9999 -9999 -9999 -9999 -9999 -9999 -9999 -9999 -9999 -9999 -9999 -9999 -9999 -9999 -9999 -9999 -9999 -9999 -9999 -9999 -9999 -9999 -9999 -9999 -9999 -9999 -9999 -9999 -9999 -9999 -9999 -9999 -9999 -9999 -9999 -9999 -9999 -9999 -9999 -9999
-9999 -9999 -9999 -9999 -9999 -9999 -9999 -9999 -9999 -9999 -9999 -9999 -9999 -9999 -9999 -9999 -9999 -9999 -9999 -9999 -9999 -9999 -9999 -9999 -9999 -9999 -9999 -9999 -9999 430 316 216 383 621 852 1122 1153 1033 806 1021 819 680 699 805 839 779 774 632 556 556 609 559 533 545 572 572 569 572 625 694 737 760 864 793 845 976 1023 1029 868 929 1023 1060 1111 1126 1104 1103 1112 1011 950 726 675 640 366 455 310 567 670 408 221 249 434 525 517 496 379 227 238 160 160 200 381 357 330 256 192 204 356 660 949 1078 747 326 286 481 288 132 109 104 100 93 85 81 81 76 68 67 62 55 50 48 42 37 35 28 25 21 18 16 15 12 12 9 9 9 9 10 10 11 11 12 14 10 9 12 11 11 11 11 11 11 13 10 14 12 12 13 13 13 12 12 13 13 13 14 15 15 16 14 12 12 16 27 48 64 63 60 40 24 18 17 16 16 16 16 17 21 20 23 19 19 23 32 31 32 41 44 51 43 47 45 46 47 -9999 -9999 -9999 45 47 49 53 48 59 78 78 88 92 88 89 80 77 77 73 79 81 63 -9999 -9999 -9999 -9999 -9999 -9999 -9999 -9999 -9999 -9999 -9999 -9999 -9999 -9999 -9999 -9999 -9999 -9999 -9999 -9999 -9999 -9999 -9999 -9999 -9999 -9999 -9999 -9999 -9999 -9999 -9999 -9999 -9999 -9999 -9999 -9999 -9999 -9999 -9999 -9999 -9999 -9999 -9999 -9999 -9999 -9999 -9999 -9999 -9999 -9999 -9999 -9999 -9999 -9999 -9999 -9999 -9999 -9999
-9999 -9999 -9999 -9999 -9999 -9999 -9999 -9999 -9999 -9999 -9999 -9999 -9999 -9999 -9999 -9999 -9999 -9999 -9999 -9999 -9999 -9999 -9999 -9999 -9999 -9999 -9999 -9999 -9999 -9999 281 254 543 869 1014 887 1013 1061 775 886 978 887 633 604 820 681 689 631 571 546 579 554 532 546 603 591 582 626 652 703 766 851 806 712 778 889 1012 950 816 923 1056 1037 1081 1174 1169 1151 1166 1174 1095 889 964 775 585 656 357 494 783 507 249 265 354 489 577 434 433 284 421 267 162 209 542 550 267 199 180 209 440 694 730 696 598 337 173 252 331 125 114 107 100 95 86 90 96 92 83 81 70 64 54 47 41 36 37 27 23 19 17 17 16 12 9 10 9 9 10 11 11 11 10 11 12 10 11 12 12 11 12 13 13 11 9 13 13 12 13 13 13 13 12 12 13 14 15 15 15 12 14 12 13 14 18 26 37 42 38 34 26 22 16 16 16 15 15 15 19 20 19 20 20 19 25 27 28 27 30 30 36 37 38 42 45 -9999 -9999 -9999 -9999 -9999 43 -9999 46 -9999 -9999 57 58 67 68 64 70 65 70 66 64 63 68 62 55 -9999 -9999 -9999 -9999 -9999 -9999 -9999 -9999 -9999 -9999 -9999 -9999 -9999 -9999 -9999 -9999 -9999 -9999 -9999 -9999 -9999 -9999 -9999 -9999 -9999 -9999 -9999 -9999 -9999 -9999 -9999 -9999 -9999 -9999 -9999 -9999 -9999 -9999 -9999 -9999 -9999 -9999 -9999 -9999 -9999 -9999 -9999 -9999 -9999 -9999 -9999 -9999 -9999 -9999 -9999 -9999 -9999
-9999 -9999 -9999 -9999 -9999 -9999 -9999 -9999 -9999 -9999 -9999 -9999 -9999 -9999 -9999 -9999 -9999 -9999 -9999 -9999 -9999 -9999 -9999 -9999 -9999 -9999 -9999 -9999 -9999 -9999 282 266 521 725 591 499 867 991 916 665 696 779 695 596 647 679 657 600 582 533 538 524 558 535 552 559 551 596 607 653 826 892 749 587 698 871 986 877 749 1070 981 1040 1137 1131 1082 1145 1181 1205 1159 1086 1114 1014 923 848 517 553 868 688 379 330 309 307 542 523 321 473 503 406 182 185 305 612 370 251 213 191 304 316 515 488 213 222 182 200 164 148 134 111 103 96 99 110 116 123 109 95 81 72 60 50 42 35 31 27 24 22 21 19 16 15 13 9 9 8 9 12 10 9 9 11 9 10 12 13 8 8 10 11 11 12 13 13 12 12 13 13 12 12 12 12 14 13 14 13 14 14 14 12 15 19 19 20 28 29 27 24 20 18 16 15 15 15 15 15 18 19 18 18 22 19 21 24 26 26 29 30 31 35 34 38 40 -9999 -9999 -9999 -9999 -9999 -9999 -9999 -9999 -9999 -9999 -9999 -9999 -9999 -9999 53 58 59 57 59 61 60 66 61 64 -9999 -9999 -9999 -9999 -9999 -9999 -9999 -9999 -9999 -9999 -9999 -9999 -9999 -9999 -9999 -9999 -9999 -9999 -9999 -9999 -9999 -9999 -9999 -9999 -9999 -9999 -9999 -9999 -9999 -9999 -9999 -9999 -9999 -9999 -9999 -9999 -9999 -9999 -9999 -9999 -9999 -9999 -9999 -9999 -9999 -9999 -9999 -9999 -9999 -9999 -9999 -9999 -9999 -9999 -9999 -9999 -9999
-9999 -9999 -9999 -9999 -9999 -9999 -9999 -9999 -9999 -9999 -9999 -9999 -9999 -9999 -9999 -9999 -9999 -9999 -9999 -9999 -9999 -9999 -9999 -9999 -9999 -9999 -9999 -9999 -9999 -9999 225 292 447 455 357 530 903 939 859 763 706 550 495 523 599 601 580 532 514 508 518 519 582 489 526 564 596 599 630 720 772 818 757 459 508 696 795 623 808 1053 1085 1065 1064 1039 1098 1161 1152 1192 1080 1141 1176 1214 1030 1023 751 872 883 949 489 316 427 591 503 745 418 431 576 445 215 181 259 554 581 562 316 167 186 202 217 232 233 217 166 152 141 147 124 114 112 102 114 138 144 143 124 104 89 73 63 54 46 37 33 30 27 25 24 21 19 17 14 8 9 9 9 9 9 9 8 10 8 11 11 9 9 14 13 14 12 14 14 13 12 12 13 12 11 12 11 12 13 13 13 13 14 15 14 13 14 15 14 16 19 19 22 23 18 15 15 14 14 14 15 15 17 16 16 18 22 19 19 21 23 25 28 31 30 31 30 34 41 -9999 -9999 -9999 -9999 -9999 -9999 -9999 -9999 -9999 -9999 -9999 -9999 -9999 -9999 -9999 -9999 54 52 59 -9999 -9999 -9999 -9999 67 -9999 -9999 -9999 -9999 -9999 -9999 -9999 -9999 -9999 -9999 -9999 -9999 -9999 -9999 -9999 -9999 -9999 -9999 -9999 -9999 -9999 -9999 -9999 -9999 -9999 -9999 -9999 -9999 -9999 -9999 -9999 -9999 -9999 -9999 -9999 -9999 -9999 -9999 -9999 -9999 -9999 -9999 -9999 -9999 -9999 -9999 -9999 -9999 -9999 -9999 -9999 -9999 -9999 -9999 -9999 -9999 -9999
-9999 -9999 -9999 -9999 -9999 -9999 -9999 -9999 -9999 -9999 -9999 -9999 -9999 -9999 -9999 -9999 -9999 -9999 -9999 -9999 -9999 -9999 -9999 -9999 -9999 -9999 -9999 -9999 -9999 -9999 -9999 219 283 320 491 694 655 890 818 822 848 809 523 411 494 527 477 477 451 466 492 474 456 471 516 547 570 592 658 593 505 501 450 483 499 490 573 771 995 1040 943 953 936 1005 1092 1100 1111 1078 1127 1178 1207 1225 1242 1123 1019 1019 1137 1035 642 360 650 783 566 687 579 339 377 449 297 184 214 622 702 506 307 163 170 183 185 187 207 238 169 147 136 131 121 118 114 115 141 185 330 159 123 104 86 75 63 54 47 42 37 33 30 28 26 23 17 12 11 11 10 9 8 8 9 8 9 9 8 12 12 8 11 14 13 11 12 14 15 14 14 13 12 11 11 11 11 12 13 13 12 13 13 15 14 13 13 14 14 13 14 16 22 24 19 15 13 15 15 15 15 17 15 15 14 16 21 18 18 21 23 24 27 29 29 27 28 29 -9999 -9999 -9999 -9999 -9999 -9999 -9999 -9999 -9999 -9999 -9999 -9999 -9999 -9999 -9999 -9999 -9999 -9999 -9999 -9999 -9999 -9999 -9999 -9999 -9999 -9999 -9999 -9999 -9999 -9999 -9999 -9999 -9999 -9999 -9999 -9999 -9999 -9999 -9999 -9999 -9999 -9999 -9999 -9999 -9999 -9999 -9999 -9999 -9999 -9999 -9999 -9999 -9999 -9999 -9999 -9999 -9999 -9999 -9999 -9999 -9999 -9999 -9999 -9999 -9999 -9999 -9999 -9999 -9999 -9999 -9999 -9999 -9999 -9999 -9999 -9999 -9999 -9999 -9999 -9999 -9999 -9999
-9999 -9999 -9999 -9999 -9999 -9999 -9999 -9999 -9999 -9999 -9999 -9999 -9999 -9999 -9999 -9999 -9999 -9999 -9999 -9999 -9999 -9999 -9999 -9999 -9999 -9999 -9999 -9999 -9999 -9999 -9999 194 305 411 553 420 511 811 840 740 768 757 656 463 415 456 477 455 430 454 408 403 445 467 485 507 461 562 450 450 525 642 751 888 874 839 955 900 1016 906 790 1015 968 989 1103 1176 1129 906 1054 1123 1154 972 1170 1162 944 1049 1175 1240 912 532 506 836 672 600 644 400 268 336 328 183 208 571 609 341 243 162 161 165 172 187 188 176 158 147 132 121 114 112 115 133 159 172 295 177 133 103 80 73 65 57 51 45 39 34 32 29 25 21 16 18 17 16 11 9 8 9 10 9 8 8 10 11 11 12 11 13 11 11 14 15 15 13 12 12 12 11 11 13 12 11 11 13 13 13 16 14 14 14 13 13 14 13 13 15 20 24 20 14 13 13 14 14 16 16 16 14 14 14 19 18 17 20 21 24 24 25 27 25 26 -9999 -9999 -9999 -9999 -9999 -9999 -9999 -9999 -9999 -9999 -9999 -9999 -9999 -9999 -9999 -9999 -9999 -9999 -9999 -9999 -9999 -9999 -9999 -9999 -9999 -9999 -9999 -9999 -9999 -9999 -9999 -9999 -9999 -9999 -9999 -9999 -9999 -9999 -9999 -9999 -9999 -9999 -9999 -9999 -9999 -9999 -9999 -9999 -9999 -9999 -9999 -9999 -9999 -9999 -9999 -9999 -9999 -9999 -9999 -9999 -9999 -9999 -9999 -9999 -9999 -9999 -9999 -9999 -9999 -9999 -9999 -9999 -9999 -9999 -9999 -9999 -9999 -9999 -9999 -9999 -9999 -9999 -9999
-9999 -9999 -9999 -9999 -9999 -9999 -9999 -9999 -9999 -9999 -9999 -9999 -9999 -9999 -9999 -9999 -9999 -9999 -9999 -9999 -9999 -9999 -9999 -9999 -9999 -9999 -9999 -9999 -9999 -9999 -9999 172 291 240 318 354 517 612 672 678 666 666 618 512 352 408 440 435 428 371 373 442 460 461 382 430 452 444 446 562 705 823 889 902 991 974 1102 851 808 754 814 1045 1047 928 975 1133 967 898 1069 1204 1157 726 930 900 845 903 1023 1138 1051 922 624 988 997 567 496 289 242 207 203 167 178 324 443 260 195 153 145 152 160 184 159 166 144 139 130 114 110 108 106 118 136 141 149 140 130 99 72 68 60 56 50 42 34 31 29 26 22 20 21 21 18 25 12 9 8 8 9 9 9 10 11 11 11 11 13 10 11 10 12 14 14 12 11 12 11 12 12 15 13 12 11 12 12 13 16 14 13 15 14 13 14 13 13 13 14 18 18 14 13 13 13 14 15 15 16 15 13 13 19 17 18 19 20 21 21 24 26 25 25 28 -9999 -9999 -9999 -9999 -9999 -9999 -9999 -9999 -9999 -9999 -9999 -9999 -9999 -9999 -9999 -9999 -9999 -9999 -9999 -9999 -9999 -9999 -9999 -9999 -9999 -9999 -9999 -9999 -9999 -9999 -9999 -9999 -9999 -9999 -9999 -9999 -9999 -9999 -9999 -9999 -9999 -9999 -9999 -9999 -9999 -9999 -9999 -9999 -9999 -9999 -9999 -9999 -9999 -9999 -9999 -9999 -9999 -9999 -9999 -9999 -9999 -9999 -9999 -9999 -9999 -9999 -9999 -9999 -9999 -9999 -9999 -9999 -9999 -9999 -9999 -9999 -9999 -9999 -9999 -9999 -9999 -9999
-9999 -9999 -9999 -9999 -9999 -9999 -9999 -9999 -9999 -9999 -9999 -9999 -9999 -9999 -9999 -9999 -9999 -9999 -9999 -9999 -9999 -9999 -9999 -9999 -9999 -9999 -9999 -9999 -9999 -9999 -9999 -9999 148 127 199 377 410 417 543 692 584 571 546 501 327 410 414 402 447 358 346 416 385 404 437 424 436 433 527 646 734 794 802 794 819 984 1116 922 587 800 881 927 952 936 736 1028 810 912 1002 1137 1216 989 558 720 1040 1077 936 1054 1188 1135 909 931 889 623 330 307 260 178 145 138 154 220 267 192 166 147 133 139 140 177 149 138 131 126 123 109 102 104 99 96 99 109 111 104 94 76 66 58 53 54 43 37 34 33 31 27 28 26 23 20 20 20 15 9 9 8 8 9 9 11 11 11 11 12 13 12 11 9 12 13 13 11 11 12 12 12 13 14 12 13 12 12 12 12 13 14 13 15 13 14 15 13 12 12 12 14 18 14 12 12 12 13 16 15 15 15 14 14 19 18 16 15 17 -9999 -9999 -9999 24 24 24 -9999 -9999 -9999 -9999 -9999 -9999 -9999 -9999 -9999 -9999 -9999 -9999 -9999 -9999 -9999 -9999 -9999 -9999 -9999 -9999 -9999 -9999 -9999 -9999 -9999 -9999 -9999 -9999 -9999 -9999 -9999 -9999 -9999 -9999 -9999 -9999 -9999 -9999 -9999 -9999 -9999 -9999 -9999 -9999 -9999 -9999 -9999 -9999 -9999 -9999 -9999 -9999 -9999 -9999 -9999 -9999 -9999 -9999 -9999 -9999 -9999 -9999 -9999 -9999 -9999 -9999 -9999 -9999 -9999 -9999 -9999 -9999 -9999 -9999 -9999 -9999 -9999 -9999 -9999 -9999 -9999 -9999 -9999
-9999 -9999 -9999 -9999 -9999 -9999 -9999 -9999 -9999 -9999 -9999 -9999 -9999 -9999 -9999 -9999 -9999 -9999 -9999 -9999 -9999 -9999 -9999 -9999 -9999 -9999 -9999 -9999 -9999 -9999 -9999 -9999 -9999 137 180 343 358 388 547 601 482 581 493 465 345 390 377 398 410 341 321 345 377 411 409 469 542 525 584 737 737 745 730 781 883 963 1023 957 633 670 728 770 965 957 691 755 813 1099 739 837 1068 991 723 564 987 1159 1113 1106 1183 1237 1322 1079 839 510 301 273 282 185 140 131 129 147 158 155 141 136 128 130 129 130 135 130 128 117 112 105 97 94 93 90 85 92 86 85 79 71 63 56 50 44 41 37 39 37 33 32 30 26 24 21 18 15 13 10 8 8 9 9 9 10 11 11 11 11 11 12 11 10 13 12 13 12 11 13 10 10 12 13 11 11 12 14 13 13 12 11 11 12 13 14 14 14 13 12 12 12 13 14 12 12 12 12 12 12 15 14 15 14 18 18 14 17 -9999 -9999 -9999 -9999 -9999 -9999 -9999 -9999 -9999 -9999 -9999 -9999 -9999 -9999 -9999 -9999 -9999 -9999 -9999 -9999 -9999 -9999 -9999 -9999 -9999 -9999 -9999 -9999 -9999 -9999 -9999 -9999 -9999 -9999 -9999 -9999 -9999 -9999 -9999 -9999 -9999 -9999 -9999 -9999 -9999 -9999 -9999 -9999 -9999 -9999 -9999 -9999 -9999 -9999 -9999 -9999 -9999 -9999 -9999 -9999 -9999 -9999 -9999 -9999 -9999 -9999 -9999 -9999 -9999 -9999 -9999 -9999 -9999 -9999 -9999 -9999 -9999 -9999 -9999 -9999 -9999 -9999 -9999 -9999 -9999 -9999 -9999 -9999 -9999 -9999
-9999 -9999 -9999 -9999 -9999 -9999 -9999 -9999 -9999 -9999 -9999 -9999 -9999 -9999 -9999 -9999 -9999 -9999 -9999 -9999 -9999 -9999 -9999 -9999 -9999 -9999 -9999 -9999 -9999 -9999 -9999 -9999 -9999 187 146 288 304 382 418 569 529 431 410 429 329 354 349 411 342 309 361 371 390 411 459 547 579 623 695 678 742 681 799 839 879 911 981 901 697 638 898 993 902 724 676 696 993 1069 764 517 653 622 537 515 823 1066 1164 1050 1152 1178 1171 965 902 573 270 244 191 163 144 136 125 120 128 131 130 127 123 122 120 121 128 123 119 113 108 105 102 98 91 84 79 78 74 72 69 69 63 57 50 47 42 42 42 39 36 33 30 27 22 19 17 15 12 9 8 8 9 9 10 11 11 11 11 9 11 9 9 11 11 11 11 11 12 13 11 10 12 12 11 10 11 11 12 12 11 10 11 12 14 13 13 14 13 13 12 11 11 12 12 12 12 11 11 11 16 16 15 15 15 15 13 22 -9999 -9999 -9999 -9999 -9999 -9999 -9999 -9999 -9999 -9999 -9999 -9999 -9999 -9999 -9999 -9999 -9999 -9999 -9999 -9999 -9999 -9999 -9999 -9999 -9999 -9999 -9999 -9999 -9999 -9999 -9999 -9999 -9999 -9999 -9999 -9999 -9999 -9999 -9999 -9999 -9999 -9999 -9999 -9999 -9999 -9999 -9999 -9999 -9999 -9999 -9999 -9999 -9999 -9999 -9999 -9999 -9999 -9999 -9999 -9999 -9999 -9999 -9999 -9999 -9999 -9999 -9999 -9999 -9999 -9999 -9999 -9999 -9999 -9999 -9999 -9999 -9999 -9999 -9999 -9999 -9999 -9999 -9999 -9999 -9999 -9999 -9999 -9999 -9999 -9999
-9999 -9999 -9999 -9999 -9999 -9999 -9999 -9999 -9999 -9999 -9999 -9999 -9999 -9999 -9999 -9999 -9999 -9999 -9999 -9999 -9999 -9999 -9999 -9999 -9999 -9999 -9999 -9999 -9999 -9999 -9999 -9999 -9999 -9999 109 194 295 304 375 512 574 503 452 360 365 315 422 421 334 296 360 425 410 430 449 534 586 559 583 614 659 716 732 698 822 884 940 662 513 708 968 870 652 574 859 764 787 971 734 387 342 381 535 803 1018 1145 1071 905 908 953 953 866 573 437 280 268 217 151 138 132 128 120 116 112 128 121 118 115 120 131 133 126 122 120 118 132 113 105 94 84 82 76 71 67 64 63 61 56 51 47 46 48 45 41 37 33 29 25 22 21 19 17 15 14 9 9 9 11 11 10 9 11 7 12 10 9 9 11 12 13 12 11 13 10 10 10 10 12 12 9 9 9 10 11 10 10 10 11 13 14 13 13 13 13 13 12 12 11 12 12 12 11 11 11 16 15 14 16 15 13 -9999 -9999 -9999 -9999 -9999 -9999 -9999 -9999 -9999 -9999 -9999 -9999 -9999 -9999 -9999 -9999 -9999 -9999 -9999 -9999 -9999 -9999 -9999 -9999 -9999 -9999 -9999 -9999 -9999 -9999 -9999 -9999 -9999 -9999 -9999 -9999 -9999 -9999 -9999 -9999 -9999 -9999 -9999 -9999 -9999 -9999 -9999 -9999 -9999 -9999 -9999 -9999 -9999 -9999 -9999 -9999 -9999 -9999 -9999 -9999 -9999 -9999 -9999 -9999 -9999 -9999 -9999 -9999 -9999 -9999 -9999 -9999 -9999 -9999 -9999 -9999 -9999 -9999 -9999 -9999 -9999 -9999 -9999 -9999 -9999 -9999 -9999 -9999 -9999 -9999 -9999 -9999
-9999 -9999 -9999 -9999 -9999 -9999 -9999 -9999 -9999 -9999 -9999 -9999 -9999 -9999 -9999 -9999 -9999 -9999 -9999 -9999 -9999 -9999 -9999 -9999 -9999 -9999 -9999 -9999 -9999 -9999 -9999 -9999 -9999 -9999 165 139 178 277 418 542 603 536 450 365 312 313 445 432 343 273 378 391 383 409 489 518 546 493 567 597 689 666 633 725 839 814 832 538 528 788 866 670 518 538 830 676 571 649 526 306 310 436 555 694 725 828 820 950 860 1032 851 669 415 301 340 303 250 144 133 128 125 117 113 102 107 118 110 118 162 188 152 133 189 264 150 157 127 112 109 93 94 82 76 71 66 60 58 55 51 50 51 48 44 40 37 33 29 26 25 23 19 16 15 12 8 10 9 11 9 9 10 7 7 12 9 8 9 11 15 15 13 13 12 11 11 13 12 12 11 8 8 8 9 11 11 10 9 10 12 13 13 12 12 13 13 13 12 12 12 11 11 10 11 11 13 13 14 14 15 15 15 -9999 -9999 -9999 -9999 -9999 -9999 -9999 -9999 -9999 -9999 -9999 -9999 -9999 -9999 -9999 -9999 -9999 -9999 -9999 -9999 -9999 -9999 -9999 -9999 -9999 -9999 -9999 -9999 -9999 -9999 -9999 -9999 -9999 -9999 -9999 -9999 -9999 -9999 -9999 -9999 -9999 -9999 -9999 -9999 -9999 -9999 -9999 -9999 -9999 -9999 -9999 -9999 -9999 -9999 -9999 -9999 -9999 -9999 -9999 -9999 -9999 -9999 -9999 -9999 -9999 -9999 -9999 -9999 -9999 -9999 -9999 -9999 -9999 -9999 -9999 -9999 -9999 -9999 -9999 -9999 -9999 -9999 -9999 -9999 -9999 -9999 -9999 -9999 -9999 -9999 -9999
-9999 -9999 -9999 -9999 -9999 -9999 -9999 -9999 -9999 -9999 -9999 -9999 -9999 -9999 -9999 -9999 -9999 -9999 -9999 -9999 -9999 -9999 -9999 -9999 -9999 -9999 -9999 -9999 -9999 -9999 -9999 -9999 -9999 -9999 180 121 99 266 379 553 616 517 471 393 277 248 416 422 335 329 415 431 405 440 474 442 465 540 597 643 631 634 733 737 790 663 683 440 556 813 589 471 581 793 674 556 406 381 286 230 263 271 382 534 625 658 867 856 498 568 553 374 247 238 257 259 147 133 126 121 123 118 106 102 98 108 107 145 159 182 167 146 354 340 246 133 154 130 125 99 92 91 85 77 73 69 64 59 56 51 49 46 43 41 38 35 32 28 26 22 19 17 17 15 9 10 10 10 9 10 10 7 7 12 9 8 8 10 13 12 13 12 12 12 11 10 11 11 10 8 7 8 9 9 10 11 9 10 12 13 13 12 12 12 12 12 11 11 11 10 10 10 11 12 11 11 12 15 15 15 14 -9999 -9999 -9999 -9999 -9999 -9999 -9999 -9999 -9999 -9999 -9999 -9999 -9999 -9999 -9999 -9999 -9999 -9999 -9999 -9999 -9999 -9999 -9999 -9999 -9999 -9999 -9999 -9999 -9999 -9999 -9999 -9999 -9999 -9999 -9999 -9999 -9999 -9999 -9999 -9999 -9999 -9999 -9999 -9999 -9999 -9999 -9999 -9999 -9999 -9999 -9999 -9999 -9999 -9999 -9999 -9999 -9999 -9999 -9999 -9999 -9999 -9999 -9999 -9999 -9999 -9999 -9999 -9999 -9999 -9999 -9999 -9999 -9999 -9999 -9999 -9999 -9999 -9999 -9999 -9999 -9999 -9999 -9999 -9999 -9999 -9999 -9999 -9999 -9999 -9999 -9999
-9999 -9999 -9999 -9999 -9999 -9999 -9999 -9999 -9999 -9999 -9999 -9999 -9999 -9999 -9999 -9999 -9999 -9999 -9999 -9999 -9999 -9999 -9999 -9999 -9999 -9999 -9999 -9999 -9999 -9999 -9999 -9999 -9999 -9999 -9999 140 78 149 334 527 610 526 499 389 236 278 410 420 343 256 361 366 395 466 436 436 462 527 659 550 614 670 698 729 761 590 574 447 704 682 473 524 761 640 487 591 384 235 213 213 234 383 608 874 1012 962 994 673 290 245 249 217 184 177 220 330 222 140 129 118 126 114 126 102 93 103 100 106 118 136 151 129 219 149 159 160 116 115 112 99 88 82 80 76 71 67 66 62 58 53 48 45 42 40 36 35 32 29 26 23 26 37 20 16 11 9 10 11 10 10 9 7 8 11 9 8 8 9 9 9 10 12 11 10 8 8 8 10 9 7 7 7 7 7 8 10 9 9 10 12 13 14 12 12 12 12 11 11 11 11 11 11 11 10 11 11 11 16 15 16 15 15 19 23 -9999 -9999 -9999 -9999 -9999 -9999 -9999 -9999 -9999 -9999 -9999 -9999 -9999 -9999 -9999 -9999 -9999 -9999 -9999 -9999 -9999 -9999 -9999 -9999 -9999 -9999 -9999 -9999 -9999 -9999 -9999 -9999 -9999 -9999 -9999 -9999 -9999 -9999 -9999 -9999 -9999 -9999 -9999 -9999 -9999 -9999 -9999 -9999 -9999 -9999 -9999 -9999 -9999 -9999 -9999 -9999 -9999 -9999 -9999 -9999 -9999 -9999 -9999 -9999 -9999 -9999 -9999 -9999 -9999 -9999 -9999 -9999 -9999 -9999 -9999 -9999 -9999 -9999 -9999 -9999 -9999 -9999 -9999 -9999 -9999 -9999 -9999 -9999
-9999 -9999 -9999 -9999 -9999 -9999 -9999 -9999 -9999 -9999 -9999 -9999 -9999 -9999 -9999 -9999 -9999 -9999 -9999 -9999 -9999 -9999 -9999 -9999 -9999 -9999 -9999 -9999 -9999 -9999 -9999 -9999 -9999 -9999 -9999 -9999 133 77 253 414 558 510 450 407 337 219 298 413 333 239 333 380 392 411 405 412 454 579 543 512 592 635 663 619 687 507 468 424 627 447 475 599 583 455 566 707 379 212 206 211 327 584 920 1017 963 949 978 755 272 193 180 174 161 158 159 160 235 170 125 113 116 107 106 101 91 95 96 95 103 113 111 112 119 125 131 125 124 125 107 93 88 83 77 71 68 64 63 61 57 54 51 47 44 45 39 34 29 28 26 23 31 41 23 12 9 9 10 11 10 10 10 7 10 11 10 9 9 10 9 8 9 11 10 11 8 7 7 9 8 8 7 7 7 7 7 10 8 9 10 11 12 13 13 13 12 12 12 11 11 12 12 10 10 10 9 11 15 15 16 15 16 17 18 20 14 -9999 -9999 -9999 -9999 -9999 -9999 -9999 -9999 -9999 -9999 -9999 -9999 -9999 -9999 -9999 -9999 -9999 -9999 -9999 -9999 -9999 -9999 -9999 -9999 -9999 -9999 -9999 -9999 -9999 -9999 -9999 -9999 -9999 -9999 -9999 -9999 -9999 -9999 -9999 -9999 -9999 -9999 -9999 -9999 -9999 -9999 -9999 -9999 -9999 -9999 -9999 -9999 -9999 -9999 -9999 -9999 -9999 -9999 -9999 -9999 -9999 -9999 -9999 -9999 -9999 -9999 -9999 -9999 -9999 -9999 -9999 -9999 -9999 -9999 -9999 -9999 -9999 -9999 -9999 -9999 -9999 -9999 -9999 -9999 -9999 -9999 -9999
-9999 -9999 -9999 -9999 -9999 -9999 -9999 -9999 -9999 -9999 -9999 -9999 -9999 -9999 -9999 -9999 -9999 -9999 -9999 -9999 -9999 -9999 -9999 -9999 -9999 -9999 -9999 -9999 -9999 -9999 -9999 -9999 -9999 -9999 -9999 -9999 163 188 232.2 203 452 415 402 392 422 315 189 294 186 298 363 386 403 339 363 402 462 515 500 527 593 581 535 496 539 395 395 499 567 438 501 520 478 485 731 778 374 213 207 214 392 749 930 969 865 979 997 639 235 172 161 150 145 142 137 138 193 137 123 140 114 102 98 96 88 86 89 88 94 99 99 104 129 141 148 151 125 188 115 95 83 80 75 71 66 61 58 60 59 52 50 46 45 42 39 33 31 26 25 23 21 21 17 11 10 12 12 12 9 10 11 8 10 10 11 10 8 8 9 8 9 11 10 8 8 7 8 10 8 9 8 7 7 7 8 10 8 9 9 10 11 12 12 12 12 12 12 12 12 12 11 10 12 12 11 11 14 15 15 15 14 17 18 16 11 -9999 -9999 -9999 -9999 -9999 -9999 -9999 -9999 -9999 -9999 -9999 -9999 -9999 -9999 -9999 -9999 -9999 -9999 -9999 -9999 -9999 -9999 -9999 -9999 -9999 -9999 -9999 -9999 -9999 -9999 -9999 -9999 -9999 -9999 -9999 -9999 -9999 -9999 -9999 -9999 -9999 -9999 -9999 -9999 -9999 -9999 -9999 -9999 -9999 -9999 -9999 -9999 -9999 -9999 -9999 -9999 -9999 -9999 -9999 -9999 -9999 -9999 -9999 -9999 -9999 -9999 -9999 -9999 -9999 -9999 -9999 -9999 -9999 -9999 -9999 -9999 -9999 -9999 -9999 -9999 -9999 -9999 -9999 -9999 -9999 -9999 -9999
-9999 -9999 -9999 -9999 -9999 -9999 -9999 -9999 -9999 -9999 -9999 -9999 -9999 -9999 -9999 -9999 -9999 -9999 -9999 -9999 -9999 -9999 -9999 -9999 -9999 -9999 -9999 -9999 -9999 -9999 -9999 -9999 -9999 -9999 -9999 -9999 -9999 77 57 71 150 266 382 344 336 300 168 167 208 209 298 336 325 316 359 416 479 472 490 541 599 483 407 358 427 505 575 624 429 457 476 452 547 559 680 712 359 209 203 213 346 691 947 876 803 964 995 835 420 205 186 212 141 134 127 125 124 121 119 131 124 134 133 97 92 85 79 81 83 91 88 99 111 132 166 243 129 111 102 92 81 75 70 66 65 61 57 53 57 52 47 43 40 42 39 37 32 28 26 22 20 17 13 12 13 15 13 13 11 10 12 10 10 11 10 9 8 8 8 8 9 10 10 8 8 8 7 8 8 10 8 7 7 9 9 9 9 10 9 9 10 11 11 12 12 13 13 13 13 12 11 11 13 12 11 10 13 13 14 16 15 15 16 14 10 -9999 -9999 -9999 -9999 -9999 -9999 -9999 -9999 -9999 -9999 -9999 -9999 -9999 -9999 -9999 -9999 -9999 -9999 -9999 -9999 -9999 -9999 -9999 -9999 -9999 -9999 -9999 -9999 -9999 -9999 -9999 -9999 -9999 -9999 -9999 -9999 -9999 -9999 -9999 -9999 -9999 -9999 -9999 -9999 -9999 -9999 -9999 -9999 -9999 -9999 -9999 -9999 -9999 -9999 -9999 -9999 -9999 -9999 -9999 -9999 -9999 -9999 -9999 -9999 -9999 -9999 -9999 -9999 -9999 -9999 -9999 -9999 -9999 -9999 -9999 -9999 -9999 -9999 -9999 -9999 -9999 -9999 -9999 -9999 -9999 -9999 -9999
-9999 -9999 -9999 -9999 -9999 -9999 -9999 -9999 -9999 -9999 -9999 -9999 -9999 -9999 -9999 -9999 -9999 -9999 -9999 -9999 -9999 -9999 -9999 -9999 -9999 -9999 -9999 -9999 -9999 -9999 -9999 -9999 -9999 -9999 -9999 -9999 -9999 -9999 -9999 101 49 107 337 339 333 312 277 130 145 244 270 275 288 353 411 454 437 459 498 558 583 417 389 454 542 577 612 598 419 449 475 576 710 660 635 661 334 210 202 208 256 492 812 629 770 840 870 877 666 312 215 236 142 129 127 123 118 115 125 157 199 253 170 137 104 89 79 76 77 85 81 90 102 126 156 234 146 109 97 91 90 78 70 65 61 59 55 52 53 51 46 44 40 59 48 38 32 28 25 22 19 17 13 15 15 15 14 13 12 13 14 14 9 14 12 10 8 8 8 8 8 8 10 8 8 8 7 7 7 7 8 7 7 8 8 9 8 9 9 10 10 10 11 12 12 14 12 12 12 11 12 11 12 11 9 8 11 11 14 15 16 14 14 12 7 -9999 -9999 -9999 -9999 -9999 -9999 -9999 -9999 -9999 -9999 -9999 -9999 -9999 -9999 -9999 -9999 -9999 -9999 -9999 -9999 -9999 -9999 -9999 -9999 -9999 -9999 -9999 -9999 -9999 -9999 -9999 -9999 -9999 -9999 -9999 -9999 -9999 -9999 -9999 -9999 -9999 -9999 -9999 -9999 -9999 -9999 -9999 -9999 -9999 -9999 -9999 -9999 -9999 -9999 -9999 -9999 -9999 -9999 -9999 -9999 -9999 -9999 -9999 -9999 -9999 -9999 -9999 -9999 -9999 -9999 -9999 -9999 -9999 -9999 -9999 -9999 -9999 -9999 -9999 -9999 -9999 -9999 -9999 -9999 -9999 -9999 -9999
-9999 -9999 -9999 -9999 -9999 -9999 -9999 -9999 -9999 -9999 -9999 -9999 -9999 -9999 -9999 -9999 -9999 -9999 -9999 -9999 -9999 -9999 -9999 -9999 -9999 -9999 -9999 -9999 -9999 -9999 -9999 -9999 -9999 -9999 -9999 -9999 -9999 -9999 -9999 210 73 141.125 168 233 194 153 293 264 96 137 239 288 357 385 464 407 408 442 497 540 481 401 390 585 587 562 579 461 430 544 570 548 582 601 674 503 266 201 202 203 215 314 489 601 803 736 731 779 821 375 174 158 138 157 171 160 139 126 134 175 338 305 212 147 110 91 86 76 73 75 76 86 95 107 114 202 137 111 97 88 81 79 74 67 69 61 55 52 49 50 46 43 41 35 35 34 31 31 24 22 18 17 15 17 16 15 13 14 13 14 16 18 9 9 10 9 9 9 9 9 8 8 8 9 10 8 8 7 7 7 8 7 7 8 8 9 8 8 8 9 10 10 10 12 13 13 12 11 12 12 12 12 10 9 9 10 9 9 10 12 13 12 14 13 6 -9999 -9999 -9999 -9999 -9999 -9999 -9999 -9999 -9999 -9999 -9999 -9999 -9999 -9999 -9999 -9999 -9999 -9999 -9999 -9999 -9999 -9999 -9999 -9999 -9999 -9999 -9999 -9999 -9999 -9999 -9999 -9999 -9999 -9999 -9999 -9999 -9999 -9999 -9999 -9999 -9999 -9999 -9999 -9999 -9999 -9999 -9999 -9999 -9999 -9999 -9999 -9999 -9999 -9999 -9999 -9999 -9999 -9999 -9999 -9999 -9999 -9999 -9999 -9999 -9999 -9999 -9999 -9999 -9999 -9999 -9999 -9999 -9999 -9999 -9999 -9999 -9999 -9999 -9999 -9999 -9999 -9999 -9999 -9999 -9999 -9999 -9999
-9999 -9999 -9999 -9999 -9999 -9999 -9999 -9999 -9999 -9999 -9999 -9999 -9999 -9999 -9999 -9999 -9999 -9999 -9999 -9999 -9999 -9999 -9999 -9999 -9999 -9999 -9999 -9999 -9999 -9999 -9999 -9999 -9999 -9999 -9999 -9999 -9999 -9999 -9999 127 78 71 55 57 32 65 119 129 143 197 293 291 317 407 393 366 461 471 519 529 401 304 404 566 525 526 504 418 426 472 513 565 562 527 427 252 207 199 204 213 269 383 585 641 701 676 621 696 709 305 172 150 146 168 171 171 164 133 180 221 363 397 367 181 119 94 86 79 72 71 73 87 88 94 95 103 102 106 99 88 87 94 77 72 72 64 57 51 46 46 46 42 38 36 33 33 30 28 23 22 20 19 17 18 17 15 14 13 12 13 13 14 13 11 11 12 11 9 9 9 8 8 8 8 7 8 8 7 7 7 8 7 7 8 10 8 8 7 6 8 10 10 11 11 12 12 11 11 12 12 11 10 10 10 10 10 10 12 9 7 10 10 13 11 11 11 12 -9999 -9999 -9999 -9999 -9999 -9999 -9999 -9999 -9999 -9999 -9999 -9999 -9999 -9999 -9999 -9999 -9999 -9999 -9999 -9999 -9999 -9999 -9999 -9999 -9999 -9999 -9999 -9999 -9999 -9999 -9999 -9999 -9999 -9999 -9999 -9999 -9999 -9999 -9999 -9999 -9999 -9999 -9999 -9999 -9999 -9999 -9999 -9999 -9999 -9999 -9999 -9999 -9999 -9999 -9999 -9999 -9999 -9999 -9999 -9999 -9999 -9999 -9999 -9999 -9999 -9999 -9999 -9999 -9999 -9999 -9999 -9999 -9999 -9999 -9999 -9999 -9999 -9999 -9999 -9999 -9999 -9999 -9999 -9999 -9999
-9999 -9999 -9999 -9999 -9999 -9999 -9999 -9999 -9999 -9999 -9999 -9999 -9999 -9999 -9999 -9999 -9999 -9999 -9999 -9999 -9999 -9999 -9999 -9999 -9999 -9999 -9999 -9999 -9999 -9999 -9999 -9999 -9999 -9999 -9999 -9999 -9999 -9999 -9999 92 15 11 17 34 132 238 124 215 306 317 342 340 315 351 417 428 411 484 520 500 339 297 446 527 440 428 400 443 426 456 465 404 366 375 214 202 208 289 318 339 348 391 464 458 480 569 679 800 722 305 196 183 161 182 219 169 144 157 170 206 226 223 286 195 117 107 101 96 87 70 73 80 77 81 84 84 89 92 104 91 85 84 71 71 65 59 54 49 45 41 42 44 40 37 34 29 28 27 26 24 22 19 19 19 17 16 15 13 12 12 10 10 13 11 12 12 11 12 12 13 11 8 7 8 7 7 7 7 7 7 7 7 7 7 9 8 8 5 6 9 10 10 11 10 11 12 12 12 12 11 10 10 10 11 12 11 11 11 9 7 5 6 6 5 9 6 -9999 -9999 -9999 -9999 -9999 -9999 -9999 -9999 -9999 -9999 -9999 -9999 -9999 -9999 -9999 -9999 -9999 -9999 -9999 -9999 -9999 -9999 -9999 -9999 -9999 -9999 -9999 -9999 -9999 -9999 -9999 -9999 -9999 -9999 -9999 -9999 -9999 -9999 -9999 -9999 -9999 -9999 -9999 -9999 -9999 -9999 -9999 -9999 -9999 -9999 -9999 -9999 -9999 -9999 -9999 -9999 -9999 -9999 -9999 -9999 -9999 -9999 -9999 -9999 -9999 -9999 -9999 -9999 -9999 -9999 -9999 -9999 -9999 -9999 -9999 -9999 -9999 -9999 -9999 -9999 -9999 -9999 -9999 -9999 -9999 -9999
-9999 -9999 -9999 -9999 -9999 -9999 -9999 -9999 -9999 -9999 -9999 -9999 -9999 -9999 -9999 -9999 -9999 -9999 -9999 -9999 -9999 -9999 -9999 -9999 -9999 -9999 -9999 -9999 -9999 -9999 -9999 -9999 -9999 -9999 -9999 -9999 -9999 -9999 -9999 135 55 50 6 33 99 239 316 353 344 367 428 294 306 380 433 446 402 455 356 358 274 436 505 465 349 352 367 406 466 458 369 263 335 234 205 214 291 347 302 282 296 479 611 637 740 788 701 761 649 220 330 352 189 173 175 161 171 181 198 199 175 169 156 214 192 151 135 120 103 86 70 67 66 72 76 74 75 86 90 91 74 75 65 65 68 59 56 54 49 43 38 41 42 38 34 33 31 28 27 24 21 21 21 19 18 16 15 13 12 12 11 9 10 11 11 11 9 9 11 10 10 11 9 8 7 7 7 7 7 8 7 7 7 7 7 9 8 6 6 9 10 11 10 10 10 11 12 11 11 11 10 11 11 11 11 11 10 9 8 9 9 7 9 8 8 -9999 -9999 -9999 -9999 -9999 -9999 -9999 -9999 -9999 -9999 -9999 -9999 -9999 -9999 -9999 -9999 -9999 -9999 -9999 -9999 -9999 -9999 -9999 -9999 -9999 -9999 -9999 -9999 -9999 -9999 -9999 -9999 -9999 -9999 -9999 -9999 -9999 -9999 -9999 -9999 -9999 -9999 -9999 -9999 -9999 -9999 -9999 -9999 -9999 -9999 -9999 -9999 -9999 -9999 -9999 -9999 -9999 -9999 -9999 -9999 -9999 -9999 -9999 -9999 -9999 -9999 -9999 -9999 -9999 -9999 -9999 -9999 -9999 -9999 -9999 -9999 -9999 -9999 -9999 -9999 -9999 -9999 -9999 -9999 -9999 -9999 -9999
-9999 -9999 -9999 -9999 -9999 -9999 -9999 -9999 -9999 -9999 -9999 -9999 -9999 -9999 -9999 -9999 -9999 -9999 -9999 -9999 -9999 -9999 -9999 -9999 -9999 -9999 -9999 -9999 -9999 -9999 -9999 -9999 -9999 -9999 -9999 -9999 -9999 -9999 -9999 -9999 36 36 6 9 55 172 289 338 299 317 346 236 303 361 350 330 215 312 192 263 378 393 376 340 317 353 458 434 452 373 289 227 270 206 232 262 263 297 406 475 558 573 664 673 752 509 568 545 318 110 316 378 241 154 141 162 178 211 256 186 216 220 267 475 255 233 168 136 111 97 81 68 62 62 69 66 67 72 80 82 69 70 60 58 63 57 53 52 49 44 38 35 39 39 36 32 31 28 26 24 22 22 21 20 19 17 15 13 12 12 11 9 11 11 11 10 10 10 10 9 8 9 8 7 9 8 7 8 7 7 7 7 7 7 7 8 9 7 6 9 10 10 10 10 10 10 11 11 11 11 11 12 11 11 10 9 9 9 9 9 9 8 10 10 9 -9999 -9999 -9999 -9999 -9999 -9999 -9999 -9999 -9999 -9999 -9999 -9999 -9999 -9999 -9999 -9999 -9999 -9999 -9999 -9999 -9999 -9999 -9999 -9999 -9999 -9999 -9999 -9999 -9999 -9999 -9999 -9999 -9999 -9999 -9999 -9999 -9999 -9999 -9999 -9999 -9999 -9999 -9999 -9999 -9999 -9999 -9999 -9999 -9999 -9999 -9999 -9999 -9999 -9999 -9999 -9999 -9999 -9999 -9999 -9999 -9999 -9999 -9999 -9999 -9999 -9999 -9999 -9999 -9999 -9999 -9999 -9999 -9999 -9999 -9999 -9999 -9999 -9999 -9999 -9999 -9999 -9999 -9999 -9999 -9999 -9999 -9999
-9999 -9999 -9999 -9999 -9999 -9999 -9999 -9999 -9999 -9999 -9999 -9999 -9999 -9999 -9999 -9999 -9999 -9999 -9999 -9999 -9999 -9999 -9999 -9999 -9999 -9999 -9999 -9999 -9999 -9999 -9999 -9999 -9999 -9999 -9999 -9999 -9999 -9999 -9999 -9999 26 39 7 8 12 120 145 192 247 290 260 206 302 327 356 234 230 270 320 251 278 247 299 285 344 386 415 373 404 287 269 156 184 215 270 271 263 301 401 544 640 458 569 647 509 264 245 185 117 65 163 145 202 161 242 318 262 242 217 206 262 243 441 410 277 241 180 150 115 106 90 74 65 61 59 58 60 63 79 66 66 60 58 51 56 55 51 47 46 42 40 35 32 35 33 31 28 27 26 24 23 22 20 19 18 16 15 14 12 12 12 10 12 11 10 10 10 10 10 9 8 7 7 6 6 7 7 7 6 7 7 7 7 7 8 9 9 7 5 7 9 9 10 10 10 9 10 11 11 12 13 13 11 10 9 8 9 8 8 8 8 9 10 9 9 8 -9999 -9999 -9999 -9999 -9999 -9999 -9999 -9999 -9999 -9999 -9999 -9999 -9999 -9999 -9999 -9999 -9999 -9999 -9999 -9999 -9999 -9999 -9999 -9999 -9999 -9999 -9999 -9999 -9999 -9999 -9999 -9999 -9999 -9999 -9999 -9999 -9999 -9999 -9999 -9999 -9999 -9999 -9999 -9999 -9999 -9999 -9999 -9999 -9999 -9999 -9999 -9999 -9999 -9999 -9999 -9999 -9999 -9999 -9999 -9999 -9999 -9999 -9999 -9999 -9999 -9999 -9999 -9999 -9999 -9999 -9999 -9999 -9999 -9999 -9999 -9999 -9999 -9999 -9999 -9999 -9999 -9999 -9999 -9999 -9999 -9999
-9999 -9999 -9999 -9999 -9999 -9999 -9999 -9999 -9999 -9999 -9999 -9999 -9999 -9999 -9999 -9999 -9999 -9999 -9999 -9999 -9999 -9999 -9999 -9999 -9999 -9999 -9999 -9999 -9999 -9999 -9999 -9999 -9999 -9999 -9999 -9999 -9999 -9999 -9999 -9999 6 19 8 5 5 20 73 160 222 264 223 205 249 227 283 135 223 310 415 352 385 369 405 419 413 410 319 353 375 219 173 202 221 275 286 309 341 415 482 557 597 420 456 320 183 249 207 64 57 50 81 212 231 180 470 623 495 287 238 304 386 391 496 394 332 219 178 153 128 130 107 81 71 66 59 56 53 58 59 59 58 55 53 50 49 49 51 47 41 39 36 35 33 29 30 29 28 27 25 23 22 21 20 18 17 16 15 14 14 11 11 10 10 9 8 8 8 7 10 9 7 6 6 6 6 6 6 7 8 6 7 7 7 7 7 9 10 8 6 8 8 10 10 10 9 9 9 10 12 12 13 12 11 9 8 8 8 8 9 8 8 9 9 9 10 8 -9999 -9999 -9999 -9999 -9999 -9999 -9999 -9999 -9999 -9999 -9999 -9999 -9999 -9999 -9999 -9999 -9999 -9999 -9999 -9999 -9999 -9999 -9999 -9999 -9999 -9999 -9999 -9999 -9999 -9999 -9999 -9999 -9999 -9999 -9999 -9999 -9999 -9999 -9999 -9999 -9999 -9999 -9999 -9999 -9999 -9999 -9999 -9999 -9999 -9999 -9999 -9999 -9999 -9999 -9999 -9999 -9999 -9999 -9999 -9999 -9999 -9999 -9999 -9999 -9999 -9999 -9999 -9999 -9999 -9999 -9999 -9999 -9999 -9999 -9999 -9999 -9999 -9999 -9999 -9999 -9999 -9999 -9999 -9999 -9999 -9999
-9999 -9999 -9999 -9999 -9999 -9999 -9999 -9999 -9999 -9999 -9999 -9999 -9999 -9999 -9999 -9999 -9999 -9999 -9999 -9999 -9999 -9999 -9999 -9999 -9999 -9999 -9999 -9999 -9999 -9999 -9999 -9999 -9999 -9999 -9999 -9999 -9999 -9999 -9999 -9999 -9999 6 5 13.43478 6 9 44 73 162 193 153 134 80 80 116 204 338 365 324 315 279 365 339 366 325 339 283 345 283 156 206 264 256 296 331 396 431 457 488 533 344 298 306 101 111 309 236 52 41 51 61 125 105 188 512 710 655 422 386 456 435 638 481 399 327 234 176 142 123 117 101 82 80 77 66 59 53 52 52 57 55 51 48 50 46 45 44 41 39 36 36 33 32 31 28 26 25 24 23 23 21 19 18 17 16 16 15 15 13 12 11 9 8 8 7 8 7 7 9 9 6 6 6 6 6 6 6 6 6 8 7 7 7 7 9 7 7 6 10 10 9 11 11 10 10 9 10 10 11 11 11 11 9 8 8 8 8 8 8 8 8 8 8 7 7 5 -9999 -9999 -9999 -9999 -9999 -9999 -9999 -9999 -9999 -9999 -9999 -9999 -9999 -9999 -9999 -9999 -9999 -9999 -9999 -9999 -9999 -9999 -9999 -9999 -9999 -9999 -9999 -9999 -9999 -9999 -9999 -9999 -9999 -9999 -9999 -9999 -9999 -9999 -9999 -9999 -9999 -9999 -9999 -9999 -9999 -9999 -9999 -9999 -9999 -9999 -9999 -9999 -9999 -9999 -9999 -9999 -9999 -9999 -9999 -9999 -9999 -9999 -9999 -9999 -9999 -9999 -9999 -9999 -9999 -9999 -9999 -9999 -9999 -9999 -9999 -9999 -9999 -9999 -9999 -9999 -9999 -9999 -9999 -9999 -9999 -9999
-9999 -9999 -9999 -9999 -9999 -9999 -9999 -9999 -9999 -9999 -9999 -9999 -9999 -9999 -9999 -9999 -9999 -9999 -9999 -9999 -9999 -9999 -9999 -9999 -9999 -9999 -9999 -9999 -9999 -9999 -9999 -9999 -9999 -9999 -9999 -9999 -9999 -9999 -9999 -9999 -9999 4 4 4 5 5 5 7 77 150 65 71 148 232 236 283 300 292 249 217 211 240 289 290 312 283 227 275 180 160 205 264 290 334 418 474 470 506 485 339 249 290 225 58 45 86 74 34 43 61 63 64 75 188 464 642 632 497 379 406 387 568 620 524 509 266 191 144 118 110 93 85 93 82 70 62 56 52 49 47 47 49 43 44 43 39 39 37 37 35 35 34 33 32 29 28 26 26 24 23 22 20 19 19 17 16 15 14 13 12 11 9 9 8 7 7 8 9 8 7 6 6 6 6 6 6 6 6 6 6 9 7 7 7 8 6 5 6 9 11 11 10 10 9 10 10 10 10 10 10 9 9 9 9 9 8 8 8 8 8 7 8 7 6 5 4 -9999 -9999 -9999 -9999 -9999 -9999 -9999 -9999 -9999 -9999 -9999 -9999 -9999 -9999 -9999 -9999 -9999 -9999 -9999 -9999 -9999 -9999 -9999 -9999 -9999 -9999 -9999 -9999 -9999 -9999 -9999 -9999 -9999 -9999 -9999 -9999 -9999 -9999 -9999 -9999 -9999 -9999 -9999 -9999 -9999 -9999 -9999 -9999 -9999 -9999 -9999 -9999 -9999 -9999 -9999 -9999 -9999 -9999 -9999 -9999 -9999 -9999 -9999 -9999 -9999 -9999 -9999 -9999 -9999 -9999 -9999 -9999 -9999 -9999 -9999 -9999 -9999 -9999 -9999 -9999 -9999 -9999 -9999 -9999 -9999 -9999
-9999 -9999 -9999 -9999 -9999 -9999 -9999 -9999 -9999 -9999 -9999 -9999 -9999 -9999 -9999 -9999 -9999 -9999 -9999 -9999 -9999 -9999 -9999 -9999 -9999 -9999 -9999 -9999 -9999 -9999 -9999 -9999 -9999 -9999 -9999 -9999 -9999 -9999 -9999 -9999 -9999 -9999 4 4 5 5 5 6 52 172 172 96 50 155 214 235 239 239 211 176 207 200 262 229 269 248 204 205 121 172 256 270 355 328 421 372 371 403 391 290 272 199 58 40 33 30 33 30 33 44 50 59 118 225 416 520 573 471 326 347 357 452 599 549 559 409 302 158 111 99 85 82 78 81 68 62 56 51 49 47 55 45 43 42 42 40 38 40 41 37 38 40 39 39 34 35 32 29 24 26 22 23 21 20 18 16 14 14 12 12 10 9 7 7 7 7 8 10 7 6 6 6 6 6 6 6 6 6 6 6 8 6 7 7 8 5 5 7 10 10 10 9 9 10 10 10 11 10 10 9 9 9 10 9 9 9 8 8 7 7 6 6 6 6 5 -9999 -9999 -9999 -9999 -9999 -9999 -9999 -9999 -9999 -9999 -9999 -9999 -9999 -9999 -9999 -9999 -9999 -9999 -9999 -9999 -9999 -9999 -9999 -9999 -9999 -9999 -9999 -9999 -9999 -9999 -9999 -9999 -9999 -9999 -9999 -9999 -9999 -9999 -9999 -9999 -9999 -9999 -9999 -9999 -9999 -9999 -9999 -9999 -9999 -9999 -9999 -9999 -9999 -9999 -9999 -9999 -9999 -9999 -9999 -9999 -9999 -9999 -9999 -9999 -9999 -9999 -9999 -9999 -9999 -9999 -9999 -9999 -9999 -9999 -9999 -9999 -9999 -9999 -9999 -9999 -9999 -9999 -9999 -9999 -9999 -9999 -9999
-9999 -9999 -9999 -9999 -9999 -9999 -9999 -9999 -9999 -9999 -9999 -9999 -9999 -9999 -9999 -9999 -9999 -9999 -9999 -9999 -9999 -9999 -9999 -9999 -9999 -9999 -9999 -9999 -9999 -9999 -9999 -9999 -9999 -9999 -9999 -9999 -9999 -9999 -9999 -9999 -9999 -9999 -9999 4 4 4 4 5 38 97 198 129 31 118 176 178 185 198 183 182 130 159 172 228 279 224 148 121 140 237 301 354 327 293 334 279 365 364 416 350 282 214 51 35 31 28 27 28 33 60 56 97 143 230 308 425 519 530 315 313 371 433 411 458 635 573 381 228 109 86 76 65 63 64 59 57 53 51 52 57 51 50 70 47 43 41 44 45 49 42 43 47 48 45 42 41 36 31 31 28 27 25 22 20 18 18 14 13 11 11 11 9 7 6 6 7 8 9 8 7 6 6 6 6 6 6 6 6 6 7 7 8 7 7 8 6 6 6 9 10 10 9 9 10 10 11 10 10 8 8 9 8 9 10 10 9 9 8 8 7 7 6 7 6 6 6 6 6 -9999 -9999 -9999 -9999 -9999 -9999 -9999 -9999 -9999 -9999 -9999 -9999 -9999 -9999 -9999 -9999 -9999 -9999 -9999 -9999 -9999 -9999 -9999 -9999 -9999 -9999 -9999 -9999 -9999 -9999 -9999 -9999 -9999 -9999 -9999 -9999 -9999 -9999 -9999 -9999 -9999 -9999 -9999 -9999 -9999 -9999 -9999 -9999 -9999 -9999 -9999 -9999 -9999 -9999 -9999 -9999 -9999 -9999 -9999 -9999 -9999 -9999 -9999 -9999 -9999 -9999 -9999 -9999 -9999 -9999 -9999 -9999 -9999 -9999 -9999 -9999 -9999 -9999 -9999 -9999 -9999 -9999 -9999 -9999
-9999 -9999 -9999 -9999 -9999 -9999 -9999 -9999 -9999 -9999 -9999 -9999 -9999 -9999 -9999 -9999 -9999 -9999 -9999 -9999 -9999 -9999 -9999 -9999 -9999 -9999 -9999 -9999 -9999 -9999 -9999 -9999 -9999 -9999 -9999 -9999 -9999 -9999 -9999 -9999 -9999 -9999 2 3 3 -9999 -9999 5 7 57 172 61 10 109 123 128 129 173 131 153 110 124 171 186 225 210 99 180 222 252 294 327 300 249 231 306 274 307 393 354 213 115 72 39 27 25 27 28 43 77 82 118 146 151 200 408 548 557 320 288 330 415 337 392 499 520 287 180 101 76 70 65 61 60 58 56 54 53 52 63 65 58 92 51 45 47 54 52 74 50 50 59 62 57 50 45 40 36 34 32 30 26 24 21 18 15 16 14 12 11 9 8 7 6 7 8 8 8 9 9 8 6 6 6 6 6 6 6 6 6 7 8 7 8 7 7 5 7 9 9 10 10 10 10 10 10 9 9 9 9 9 8 9 9 9 9 8 7 8 7 6 7 7 6 6 6 6 6 -9999 -9999 -9999 -9999 -9999 -9999 -9999 -9999 -9999 -9999 -9999 -9999 -9999 -9999 -9999 -9999 -9999 -9999 -9999 -9999 -9999 -9999 -9999 -9999 -9999 -9999 -9999 -9999 -9999 -9999 -9999 -9999 -9999 -9999 -9999 -9999 -9999 -9999 -9999 -9999 -9999 -9999 -9999 -9999 -9999 -9999 -9999 -9999 -9999 -9999 -9999 -9999 -9999 -9999 -9999 -9999 -9999 -9999 -9999 -9999 -9999 -9999 -9999 -9999 -9999 -9999 -9999 -9999 -9999 -9999 -9999 -9999 -9999 -9999 -9999 -9999 -9999 -9999 -9999 -9999 -9999 -9999 -9999 -9999
-9999 -9999 -9999 -9999 -9999 -9999 -9999 -9999 -9999 -9999 -9999 -9999 -9999 -9999 -9999 -9999 -9999 -9999 -9999 -9999 -9999 -9999 -9999 -9999 -9999 -9999 -9999 -9999 -9999 -9999 -9999 -9999 -9999 -9999 -9999 -9999 -9999 -9999 -9999 -9999 -9999 -9999 -9999 4 -9999 -9999 -9999 -9999 5 58 123 28 11 80 48 86 138 127 89 102 62 112 116 136 162 169 83 209 233 241 264 307 264 213 201 228 311 301 303 314 166 150 99 37 26 25 28 30 54 116 116 113 130 112 156 357 528 548 326 281 277 292 292 260 250 235 130 148 86 73 68 66 66 66 64 61 60 54 58 81 116 68 61 65 53 55 54 56 91 59 85 146 209 161 71 60 45 40 38 35 31 28 24 21 19 18 15 12 11 11 10 9 6 6 9 8 7 6 9 10 9 8 6 6 6 6 6 6 6 6 6 8 5 7 6 6 5 7 8 9 10 10 10 10 9 9 9 10 9 8 8 8 9 9 8 8 8 7 7 7 7 7 7 6 6 5 6 6 6 -9999 -9999 -9999 -9999 -9999 -9999 -9999 -9999 -9999 -9999 -9999 -9999 -9999 -9999 -9999 -9999 -9999 -9999 -9999 -9999 -9999 -9999 -9999 -9999 -9999 -9999 -9999 -9999 -9999 -9999 -9999 -9999 -9999 -9999 -9999 -9999 -9999 -9999 -9999 -9999 -9999 -9999 -9999 -9999 -9999 -9999 -9999 -9999 -9999 -9999 -9999 -9999 -9999 -9999 -9999 -9999 -9999 -9999 -9999 -9999 -9999 -9999 -9999 -9999 -9999 -9999 -9999 -9999 -9999 -9999 -9999 -9999 -9999 -9999 -9999 -9999 -9999 -9999 -9999 -9999 -9999 -9999 -9999
-9999 -9999 -9999 -9999 -9999 -9999 -9999 -9999 -9999 -9999 -9999 -9999 -9999 -9999 -9999 -9999 -9999 -9999 -9999 -9999 -9999 -9999 -9999 -9999 -9999 -9999 -9999 -9999 -9999 -9999 -9999 -9999 -9999 -9999 -9999 -9999 -9999 -9999 -9999 -9999 -9999 -9999 -9999 -9999 -9999 -9999 -9999 -9999 6 19 42 57 48.70833 69 43 86 106 106 51 58 45 46 59 62 65 115 152 210 180 219 264 260 255 181 173 260 249 234 259 235 126 231 164 36 26 25 27 36 166 254 266 194 132 153 166 281 444 516 375 285 272 300 380 328 200 141 104 87 81 73 70 73 74 72 71 69 62 57 62 67 103 78 67 77 98 76 67 63 64 62 58 81 142 145 84 66 49 45 41 37 34 28 25 22 28 41 34 19 11 10 9 9 8 6 7 7 7 6 8 9 9 9 7 6 6 6 6 6 6 6 6 8 7 7 6 5 6 6 8 10 10 10 10 10 9 9 9 9 9 8 8 7 7 8 8 8 7 7 7 7 7 7 6 6 5 5 6 6 6 6 -9999 -9999 -9999 -9999 -9999 -9999 -9999 -9999 -9999 -9999 -9999 -9999 -9999 -9999 -9999 -9999 -9999 -9999 -9999 -9999 -9999 -9999 -9999 -9999 -9999 -9999 -9999 -9999 -9999 -9999 -9999 -9999 -9999 -9999 -9999 -9999 -9999 -9999 -9999 -9999 -9999 -9999 -9999 -9999 -9999 -9999 -9999 -9999 -9999 -9999 -9999 -9999 -9999 -9999 -9999 -9999 -9999 -9999 -9999 -9999 -9999 -9999 -9999 -9999 -9999 -9999 -9999 -9999 -9999 -9999 -9999 -9999 -9999 -9999 -9999 -9999 -9999 -9999 -9999 -9999 -9999 -9999
-9999 -9999 -9999 -9999 -9999 -9999 -9999 -9999 -9999 -9999 -9999 -9999 -9999 -9999 -9999 -9999 -9999 -9999 -9999 -9999 -9999 -9999 -9999 -9999 -9999 -9999 -9999 -9999 -9999 -9999 -9999 -9999 -9999 -9999 -9999 -9999 -9999 -9999 -9999 -9999 -9999 -9999 -9999 -9999 -9999 -9999 -9999 -9999 -9999 -9999 13 23 11 40 42 43 50 72 60 38 27 54 114 147 170 174 191 171 142 218 259 223 219 183 168 216 230 149 140 166 186 234 234 40 25 24 28 51 379 412 335 289 235 165 196 335 369 510 340 290 297 434 630 637 518 338 236 107 95 86 85 86 82 80 77 74 64 60 65 69 78 102 93 86 178 99 158 236 111 93 74 72 106 75 73 55 50 44 41 37 34 29 25 25 43 64 51 25 11 10 9 7 7 6 8 7 6 6 7 9 9 9 8 6 6 6 6 6 6 6 6 6 8 8 6 6 6 9 35 15 9 9 9 9 9 9 9 9 8 7 7 7 6 7 7 7 6 6 6 7 7 6 6 6 6 5 6 6 6 6 6 6 7 6 -9999 -9999 -9999 -9999 -9999 -9999 -9999 -9999 -9999 -9999 -9999 -9999 -9999 -9999 -9999 -9999 -9999 -9999 -9999 -9999 -9999 -9999 -9999 -9999 -9999 -9999 -9999 -9999 -9999 -9999 -9999 -9999 -9999 -9999 -9999 -9999 -9999 -9999 -9999 -9999 -9999 -9999 -9999 -9999 -9999 -9999 -9999 -9999 -9999 -9999 -9999 -9999 -9999 -9999 -9999 -9999 -9999 -9999 -9999 -9999 -9999 -9999 -9999 -9999 -9999 -9999 -9999 -9999 -9999 -9999 -9999 -9999 -9999 -9999 -9999 -9999 -9999 -9999
-9999 -9999 -9999 -9999 -9999 -9999 -9999 -9999 -9999 -9999 -9999 -9999 -9999 -9999 -9999 -9999 -9999 -9999 -9999 -9999 -9999 -9999 -9999 -9999 -9999 -9999 -9999 -9999 -9999 -9999 -9999 -9999 -9999 -9999 -9999 -9999 -9999 -9999 -9999 -9999 -9999 -9999 -9999 -9999 -9999 -9999 -9999 -9999 -9999 -9999 7 7 10 19 21 15 22 47 43 33 23 45 84 134 161 129 130 100 134 169 225 226 177 121 171 194 153 78 148 180 194 257 252 39 22 22 31 48 314 462 411 394 353 234 205 223 344 464 444 441 386 581 782 693 697 646 494 201 103 95 90 105 90 85 80 75 67 61 68 74 81 92 116 157 109 85 105 249 191 257 155 164 90 80 67 58 51 44 40 36 32 29 26 28 45 62 46 21 11 9 8 7 7 8 7 6 6 6 8 9 9 7 6 6 6 6 6 6 6 6 6 7 7 8 6 6 6 11 14 8 8 8 8 8 8 8 8 8 8 7 6 6 6 6 7 6 7 7 7 5 6 6 5 6 5 6 6 6 6 6 7 6 6 6 -9999 -9999 -9999 -9999 -9999 -9999 -9999 -9999 -9999 -9999 -9999 -9999 -9999 -9999 -9999 -9999 -9999 -9999 -9999 -9999 -9999 -9999 -9999 -9999 -9999 -9999 -9999 -9999 -9999 -9999 -9999 -9999 -9999 -9999 -9999 -9999 -9999 -9999 -9999 -9999 -9999 -9999 -9999 -9999 -9999 -9999 -9999 -9999 -9999 -9999 -9999 -9999 -9999 -9999 -9999 -9999 -9999 -9999 -9999 -9999 -9999 -9999 -9999 -9999 -9999 -9999 -9999 -9999 -9999 -9999 -9999 -9999 -9999 -9999 -9999 -9999 -9999 -9999
-9999 -9999 -9999 -9999 -9999 -9999 -9999 -9999 -9999 -9999 -9999 -9999 -9999 -9999 -9999 -9999 -9999 -9999 -9999 -9999 -9999 -9999 -9999 -9999 -9999 -9999 -9999 -9999 -9999 -9999 -9999 -9999 -9999 -9999 -9999 -9999 -9999 -9999 -9999 -9999 -9999 -9999 -9999 -9999 -9999 -9999 -9999 -9999 -9999 10 10 16 21 7 6 12 23 37 36 16 24 43 92 130 130 119 105 64 88 129 165 196 204 122 115 156 114 142 76 89 150 179 149 43 24 20 28 33 194 502 478 442 428 371 368 401 470 507 607 732 588 674 693 664 680 669 580 345 123 98 99 110 96 88 82 78 72 64 75 82 83 142 259 330 165 94 94 146 314 298 376 335 114 176 142 104 51 44 39 35 31 27 25 29 25 31 25 13 9 9 7 7 8 7 8 6 6 6 8 8 6 6 6 6 6 6 6 6 6 6 6 6 7 6 5 7 8 7 7 6 7 7 7 7 8 8 8 7 8 7 7 7 7 7 6 6 6 7 6 6 4 5 5 6 6 6 6 6 6 6 6 6 6 6 6 -9999 -9999 -9999 -9999 -9999 -9999 -9999 -9999 -9999 -9999 -9999 -9999 -9999 -9999 -9999 -9999 -9999 -9999 -9999 -9999 -9999 -9999 -9999 -9999 -9999 -9999 -9999 -9999 -9999 -9999 -9999 -9999 -9999 -9999 -9999 -9999 -9999 -9999 -9999 -9999 -9999 -9999 -9999 -9999 -9999 -9999 -9999 -9999 -9999 -9999 -9999 -9999 -9999 -9999 -9999 -9999 -9999 -9999 -9999 -9999 -9999 -9999 -9999 -9999 -9999 -9999 -9999 -9999 -9999 -9999 -9999 -9999 -9999 -9999 -9999 -9999 -9999
-9999 -9999 -9999 -9999 -9999 -9999 -9999 -9999 -9999 -9999 -9999 -9999 -9999 -9999 -9999 -9999 -9999 -9999 -9999 -9999 -9999 -9999 -9999 -9999 -9999 -9999 -9999 -9999 -9999 -9999 -9999 -9999 -9999 -9999 -9999 -9999 -9999 -9999 -9999 -9999 -9999 -9999 -9999 -9999 -9999 -9999 -9999 -9999 -9999 8 21 38 77 86 28 15 8 20 24 15 31 62 143 89 78 88 72 95 50 104 105 127 160 131 66 66 138 102 57 111 139 184 230 221 69 20 21 29 89 474 475 450 526 487 492 548 596 600 697 756 711 732 691 664 685 674 610 371 160 106 101 104 101 90 85 82 74 68 73 78 82 95 160 187 103 85 85 114 151 234 277 205 273 303 423 139 53 44 37 33 30 29 23 19 17 16 13 10 10 10 7 9 8 7 7 6 6 6 8 8 7 6 6 6 6 6 6 6 6 6 6 7 6 6 6 7 9 8 8 7 8 7 7 7 7 7 7 7 8 8 8 7 7 6 6 6 6 6 5 5 5 4 4 5 5 6 6 6 6 5 6 6 6 6 6 6 6 -9999 -9999 -9999 -9999 -9999 -9999 -9999 -9999 -9999 -9999 -9999 -9999 -9999 -9999 -9999 -9999 -9999 -9999 -9999 -9999 -9999 -9999 -9999 -9999 -9999 -9999 -9999 -9999 -9999 -9999 -9999 -9999 -9999 -9999 -9999 -9999 -9999 -9999 -9999 -9999 -9999 -9999 -9999 -9999 -9999 -9999 -9999 -9999 -9999 -9999 -9999 -9999 -9999 -9999 -9999 -9999 -9999 -9999 -9999 -9999 -9999 -9999 -9999 -9999 -9999 -9999 -9999 -9999 -9999 -9999 -9999 -9999 -9999 -9999 -9999
-9999 -9999 -9999 -9999 -9999 -9999 -9999 -9999 -9999 -9999 -9999 -9999 -9999 -9999 -9999 -9999 -9999 -9999 -9999 -9999 -9999 -9999 -9999 -9999 -9999 -9999 -9999 -9999 -9999 -9999 -9999 -9999 -9999 -9999 -9999 -9999 -9999 -9999 -9999 -9999 -9999 -9999 -9999 -9999 -9999 -9999 -9999 -9999 -9999 -9999 -9999 22 78 131 35 20 24 19 21 10 33 93 82 66 56 53 54 72 44 53 59 84 64 68 56 31 59 43 53 74 126 190 278 379 184 27 21 35 69 433 428 420 514 560 605 645 677 697 733 732 716 770 735 629 644 629 505 328 159 109 110 105 100 93 85 80 75 70 69 74 80 87 93 91 85 81 79 156 120 88 81 93 126 151 269 134 50 41 36 31 27 25 21 17 14 12 10 9 9 10 11 9 8 7 7 6 6 7 7 8 8 6 6 6 6 6 6 6 6 6 6 4 7 5 5 5 7 8 9 8 8 8 7 7 6 6 6 7 8 8 8 7 7 6 6 6 5 5 5 5 5 5 4 6 6 6 6 5 5 6 6 6 6 6 7 7 6 6 -9999 -9999 -9999 -9999 5 -9999 -9999 -9999 -9999 -9999 -9999 -9999 -9999 -9999 -9999 -9999 -9999 -9999 -9999 -9999 -9999 -9999 -9999 -9999 -9999 -9999 -9999 -9999 -9999 -9999 -9999 -9999 -9999 -9999 -9999 -9999 -9999 -9999 -9999 -9999 -9999 -9999 -9999 -9999 -9999 -9999 -9999 -9999 -9999 -9999 -9999 -9999 -9999 -9999 -9999 -9999 -9999 -9999 -9999 -9999 -9999 -9999 -9999 -9999 -9999 -9999 -9999 -9999 -9999 -9999 -9999 -9999 -9999 -9999
-9999 -9999 -9999 -9999 -9999 -9999 -9999 -9999 -9999 -9999 -9999 -9999 -9999 -9999 -9999 -9999 -9999 -9999 -9999 -9999 -9999 -9999 -9999 -9999 -9999 -9999 -9999 -9999 -9999 -9999 -9999 -9999 -9999 -9999 -9999 -9999 -9999 -9999 -9999 -9999 -9999 -9999 -9999 -9999 -9999 -9999 -9999 -9999 -9999 -9999 -9999 21 45 54 36 39 38 33 23 14 27 29 41 49 42 39 30 43 42 33 26 48 37 20 22 19 25 37 64 78 101 135 280 259 128 23 19 21 60 378 383 404 412 509 604 672 665 762 751 722 728 803 814 611 585 552 404 242 140 117 117 115 113 98 86 83 80 71 71 80 88 93 92 80 80 76 83 91 96 69 64 61 62 84 101 57 47 39 34 30 26 22 19 16 13 11 9 8 8 20 10 10 9 8 7 6 6 6 7 7 8 7 7 6 6 6 6 6 6 6 6 6 6 5 5 5 5 8 9 8 7 7 6 6 6 6 6 8 9 8 8 8 7 6 6 6 5 5 5 4 5 5 4 4 6 6 6 6 6 6 6 6 6 7 7 6 6 5 6 6 5 6 6 5 -9999 -9999 -9999 -9999 -9999 -9999 -9999 -9999 -9999 -9999 -9999 -9999 -9999 -9999 -9999 -9999 -9999 -9999 -9999 -9999 -9999 -9999 -9999 -9999 -9999 -9999 -9999 -9999 -9999 -9999 -9999 -9999 -9999 -9999 -9999 -9999 -9999 -9999 -9999 -9999 -9999 -9999 -9999 -9999 -9999 -9999 -9999 -9999 -9999 -9999 -9999 -9999 -9999 -9999 -9999 -9999 -9999 -9999 -9999 -9999 -9999 -9999 -9999 -9999 -9999 -9999 -9999 -9999
-9999 -9999 -9999 -9999 -9999 -9999 -9999 -9999 -9999 -9999 -9999 -9999 -9999 -9999 -9999 -9999 -9999 -9999 -9999 -9999 -9999 -9999 -9999 -9999 -9999 -9999 -9999 -9999 -9999 -9999 -9999 -9999 -9999 -9999 -9999 -9999 -9999 -9999 -9999 -9999 -9999 -9999 -9999 -9999 -9999 -9999 -9999 -9999 -9999 -9999 -9999 11 11 9 19 23 30 31 32 22 10 22 54 70 44 37 30 36 36 26 25 18 18 11 10 11 12 22 48 47 60 121 115 114 150 33 19 16 77 354 337 357 374 447 535 558 556 687 788 749 695 742 684 583 505 457 414 213 134 119 110 104 99 93 89 86 79 74 76 88 91 91 86 78 77 76 70 91 72 89 113 56 51 55 52 51 43 37 32 32 24 20 17 15 12 10 9 12 8 10 10 10 10 11 9 7 6 6 6 6 7 8 9 7 6 7 7 6 6 6 6 5 5 5 5 5 4 8 9 8 7 6 6 6 6 7 6 7 8 8 8 8 7 6 6 6 5 6 5 5 5 5 6 5 6 6 6 6 6 6 6 6 7 7 6 7 6 6 6 6 6 6 5 5 3 -9999 -9999 -9999 -9999 -9999 -9999 -9999 -9999 -9999 -9999 -9999 -9999 -9999 -9999 -9999 -9999 -9999 -9999 -9999 -9999 -9999 -9999 -9999 -9999 -9999 -9999 -9999 -9999 -9999 -9999 -9999 -9999 -9999 -9999 -9999 -9999 -9999 -9999 -9999 -9999 -9999 -9999 -9999 -9999 -9999 -9999 -9999 -9999 -9999 -9999 -9999 -9999 -9999 -9999 -9999 -9999 -9999 -9999 -9999 -9999 -9999 -9999 -9999 -9999 -9999 -9999 -9999
-9999 -9999 -9999 -9999 -9999 -9999 -9999 -9999 -9999 -9999 -9999 -9999 -9999 -9999 -9999 -9999 -9999 -9999 -9999 -9999 -9999 -9999 -9999 -9999 -9999 -9999 -9999 -9999 -9999 -9999 -9999 -9999 -9999 -9999 -9999 -9999 -9999 -9999 -9999 -9999 -9999 -9999 -9999 -9999 -9999 -9999 -9999 -9999 -9999 -9999 -9999 -9999 6 13 53 63 42 31 24 18 13 22 37 84 115 74 85 46 28 37 57 38 15 18 11 12 17 17 34 54 115 121 78 165 168 34 18 14 25 322 324 343 393 441 485 427 578 655 669 700 663 670 624 540 523 542 414 270 136 120 121 126 109 96 87 81 79 80 87 92 87 79 80 71 78 89 75 59 57 77 72 58 48 46 46 43 38 34 29 26 21 18 15 13 11 9 9 17 11 8 10 9 10 9 9 9 6 5 6 6 6 7 8 7 6 8 5 6 6 6 6 6 5 5 5 5 5 7 8 7 7 6 5 6 6 7 6 6 7 8 8 8 6 7 7 6 6 6 5 5 5 4 4 4 5 4 6 6 7 7 7 6 7 6 6 6 6 7 7 6 6 6 5 4 3 -9999 -9999 -9999 -9999 -9999 -9999 -9999 -9999 -9999 -9999 -9999 -9999 -9999 -9999 -9999 -9999 -9999 -9999 -9999 -9999 -9999 -9999 -9999 -9999 -9999 -9999 -9999 -9999 -9999 -9999 -9999 -9999 -9999 -9999 -9999 -9999 -9999 -9999 -9999 -9999 -9999 -9999 -9999 -9999 -9999 -9999 -9999 -9999 -9999 -9999 -9999 -9999 -9999 -9999 -9999 -9999 -9999 -9999 -9999 -9999 -9999 -9999 -9999 -9999 -9999 -9999 -9999
-9999 -9999 -9999 -9999 -9999 -9999 -9999 -9999 -9999 -9999 -9999 -9999 -9999 -9999 -9999 -9999 -9999 -9999 -9999 -9999 -9999 -9999 -9999 -9999 -9999 -9999 -9999 -9999 -9999 -9999 -9999 -9999 -9999 -9999 -9999 -9999 -9999 -9999 -9999 -9999 -9999 -9999 -9999 -9999 -9999 -9999 -9999 -9999 -9999 -9999 -9999 -9999 -9999 -9999 80 97 66 40 32 36 29 26 42 48 87 166 93 108 63 88 110 89 22 44 25 29 28 47 86 152 168 215 255 240 71 28 18 13 11 227 336 345 395 443 380 478 566 569 547 646 607 619 560 473 532 629 443 285 136 118 120 120 100 91 86 83 85 90 106 106 87 77 72 67 82 116 89 62 52 52 52 64 45 43 40 38 35 31 28 24 21 17 14 12 10 8 7 8 7 7 8 10 10 9 9 8 7 6 6 5 6 8 8 7 6 7 5 5 6 7 6 5 5 6 6 6 7 6 6 6 6 6 7 6 6 7 6 6 7 8 8 7 6 6 6 6 6 6 5 6 5 5 4 4 5 4 5 6 7 7 7 7 6 6 6 6 7 7 7 6 6 5 5 5 4 -9999 -9999 -9999 -9999 -9999 -9999 -9999 -9999 -9999 -9999 -9999 -9999 -9999 -9999 -9999 -9999 -9999 -9999 -9999 -9999 -9999 -9999 -9999 -9999 -9999 -9999 -9999 -9999 -9999 -9999 -9999 -9999 -9999 -9999 -9999 -9999 -9999 -9999 -9999 -9999 -9999 -9999 -9999 -9999 -9999 -9999 -9999 -9999 -9999 -9999 -9999 -9999 -9999 -9999 -9999 -9999 -9999 -9999 -9999 -9999 -9999 -9999 -9999 -9999 -9999 -9999 -9999
-9999 -9999 -9999 -9999 -9999 -9999 -9999 -9999 -9999 -9999 -9999 -9999 -9999 -9999 -9999 -9999 -9999 -9999 -9999 -9999 -9999 -9999 -9999 -9999 -9999 -9999 -9999 -9999 -9999 -9999 -9999 -9999 -9999 -9999 -9999 -9999 -9999 -9999 -9999 -9999 -9999 -9999 -9999 -9999 -9999 -9999 -9999 -9999 -9999 -9999 -9999 -9999 -9999 18 26 80 103 66 56 59 36 25 30 31 43 134 174 117 128 177 211 69 91 50 53 42 51 93 146 101 110 128 158 148 79 38 16 10 11 83 284 271 265 317 295 475 497 441 414 441 476 447 427 400 403 382 307 175 135 124 114 103 95 91 88 88 96 101 107 106 99 83 70 64 76 84 87 60 50 45 45 43 41 40 38 35 33 30 26 23 20 17 14 12 10 9 8 7 7 4 8 8 9 8 8 8 7 6 5 6 7 8 6 5 5 4 5 5 7 5 6 5 5 5 6 6 6 5 5 5 6 6 7 6 6 6 6 7 7 8 7 6 6 6 5 6 5 5 4 4 5 3 4 5 5 5 4 6 7 7 7 7 7 6 6 6 6 7 6 6 6 5 4 4 3 3 -9999 -9999 -9999 -9999 -9999 -9999 -9999 -9999 -9999 -9999 -9999 -9999 -9999 -9999 -9999 -9999 -9999 -9999 -9999 -9999 -9999 -9999 -9999 -9999 -9999 -9999 -9999 -9999 -9999 -9999 -9999 -9999 -9999 -9999 -9999 -9999 -9999 -9999 -9999 -9999 -9999 -9999 -9999 -9999 -9999 -9999 -9999 -9999 -9999 -9999 -9999 -9999 -9999 -9999 -9999 -9999 -9999 -9999 -9999 -9999 -9999 -9999 -9999 -9999 -9999 -9999
-9999 -9999 -9999 -9999 -9999 -9999 -9999 -9999 -9999 -9999 -9999 -9999 -9999 -9999 -9999 -9999 -9999 -9999 -9999 -9999 -9999 -9999 -9999 -9999 -9999 -9999 -9999 -9999 -9999 -9999 -9999 -9999 -9999 -9999 -9999 -9999 -9999 -9999 -9999 -9999 -9999 -9999 -9999 -9999 -9999 -9999 -9999 -9999 -9999 -9999 -9999 18 39 27 19 31 128 186 141 96 43 32 30 36 41 76 156 200 192 208 125 40 58 63 77 62 66 48 33 43 44 48 83 64 106 130 30 10 11 11 23 31 130 189 215 404 354 406 216 314 359 335 298 229 178 118 144 275 169 136 125 104 98 95 93 98 109 119 105 88 110 84 69 66 66 64 64 53 47 44 39 40 37 35 35 32 30 28 25 22 19 16 14 13 11 10 8 9 9 4 6 7 8 8 8 8 5 4 4 6 7 8 6 5 5 5 5 4 6 5 6 4 5 4 5 5 5 5 6 6 7 6 6 5 6 6 7 8 7 7 6 5 5 4 5 6 5 5 3 3 4 3 4 4 5 4 6 7 7 7 7 7 7 7 7 7 5 6 6 5 5 5 3 -9999 2 2 -9999 -9999 -9999 -9999 -9999 -9999 -9999 -9999 -9999 -9999 -9999 -9999 -9999 -9999 -9999 -9999 -9999 -9999 -9999 -9999 -9999 -9999 -9999 -9999 -9999 -9999 -9999 -9999 -9999 -9999 -9999 -9999 -9999 -9999 -9999 -9999 -9999 -9999 -9999 -9999 -9999 -9999 -9999 -9999 -9999 -9999 -9999 -9999 -9999 -9999 -9999 -9999 -9999 -9999 -9999 -9999 -9999 -9999 -9999 -9999 -9999 -9999 -9999 -9999 -9999 -9999
-9999 -9999 -9999 -9999 -9999 -9999 -9999 -9999 -9999 -9999 -9999 -9999 -9999 -9999 -9999 -9999 -9999 -9999 -9999 -9999 -9999 -9999 -9999 -9999 -9999 -9999 -9999 -9999 -9999 -9999 -9999 -9999 -9999 -9999 -9999 -9999 -9999 -9999 -9999 -9999 -9999 -9999 -9999 -9999 -9999 -9999 -9999 -9999 -9999 -9999 4 7 66 104 79 37 65 234 189 116 46 35 29 39 71 103 102 175 204 157 57 21 15 22 24 37 42 23 16 15 20 31 31 39 61 133 79 16 10 8 9 10 22 120 144 287 271 382 116 189 144 81 67 41 114 264 423 407 197 133 122 110 103 99 99 107 125 164 196 85 80 84 73 60 54 59 51 48 44 40 35 36 35 32 31 29 27 25 23 20 18 16 14 13 11 9 8 9 7 3 6 8 8 8 8 9 6 4 4 4 5 8 6 5 5 5 5 5 6 5 6 4 5 6 5 4 5 6 7 7 6 6 6 5 6 7 8 8 8 6 5 4 5 4 5 5 4 4 -9999 -9999 -9999 -9999 -9999 3 4 4 5 7 7 7 7 7 7 7 6 6 6 4 4 5 5 4 3 -9999 -9999 -9999 -9999 -9999 -9999 -9999 -9999 -9999 -9999 -9999 -9999 -9999 -9999 -9999 -9999 -9999 -9999 -9999 -9999 -9999 -9999 -9999 -9999 -9999 -9999 -9999 -9999 -9999 -9999 -9999 -9999 -9999 -9999 -9999 -9999 -9999 -9999 -9999 -9999 -9999 -9999 -9999 -9999 -9999 -9999 -9999 -9999 -9999 -9999 -9999 -9999 -9999 -9999 -9999 -9999 -9999 -9999 -9999 -9999 -9999 -9999 -9999 -9999 -9999 -9999 -9999 -9999 -9999
-9999 -9999 -9999 -9999 -9999 -9999 -9999 -9999 -9999 -9999 -9999 -9999 -9999 -9999 -9999 -9999 -9999 -9999 -9999 -9999 -9999 -9999 -9999 -9999 -9999 -9999 -9999 -9999 -9999 -9999 -9999 -9999 -9999 -9999 -9999 -9999 -9999 -9999 -9999 -9999 -9999 -9999 -9999 -9999 -9999 -9999 -9999 -9999 -9999 -9999 11 12 32 106 142 111 55 170 285 155 108 47 39 38 60 86 141 64 115 78 21 6 7 10 7 14 25 31 23 11 14 17 22 27 35 95 158 44 8 9 9 10 15 26 128 113 152 142 36 35 27 25 26 33 199 348 339 314 207 131 121 112 105 100 101 122 140 196 193 89 76 70 66 79 71 53 47 45 42 38 36 33 32 30 28 27 25 23 21 20 18 16 15 12 10 8 7 8 7 3 4 7 8 7 7 9 6 4 4 4 4 6 7 5 5 4 5 5 6 3 6 4 4 4 5 5 5 7 8 7 6 5 5 5 6 7 6 7 7 6 4 4 4 4 4 4 4 -9999 -9999 -9999 -9999 -9999 -9999 -9999 4 6 6 6 7 7 7 7 6 7 6 6 5 5 4 4 4 4 4 -9999 -9999 -9999 -9999 -9999 -9999 -9999 -9999 -9999 -9999 -9999 -9999 -9999 -9999 -9999 -9999 -9999 -9999 -9999 -9999 -9999 -9999 -9999 -9999 -9999 -9999 -9999 -9999 -9999 -9999 -9999 -9999 -9999 -9999 -9999 -9999 -9999 -9999 -9999 -9999 -9999 -9999 -9999 -9999 -9999 -9999 -9999 -9999 -9999 -9999 -9999 -9999 -9999 -9999 -9999 -9999 -9999 -9999 -9999 -9999 -9999 -9999 -9999 -9999 -9999 -9999 -9999 -9999 -9999
-9999 -9999 -9999 -9999 -9999 -9999 -9999 -9999 -9999 -9999 -9999 -9999 -9999 -9999 -9999 -9999 -9999 -9999 -9999 -9999 -9999 -9999 -9999 -9999 -9999 -9999 -9999 -9999 -9999 -9999 -9999 -9999 -9999 -9999 -9999 -9999 -9999 -9999 -9999 -9999 -9999 -9999 -9999 -9999 -9999 -9999 -9999 -9999 -9999 -9999 27 61 105 97 129 185 171 104 269 203 106 52 47 55 37 48 69 85 56 77 26 4 5 6 8 8 12 11 8 6 9 13 14 10 19 25 58 110 50 7 7 7 11 11 69 23 23 19 17 17 18 22 44 33 47 215 314 240 244 154 138 120 110 99 91 139 178 304 268 94 83 76 68 76 78 57 51 47 43 39 36 33 30 28 26 24 21 21 19 17 16 14 13 12 11 8 5 6 7 3 3 5 7 6 6 8 6 4 4 4 4 6 7 5 5 4 5 4 6 3 6 3 3 5 6 7 7 7 6 6 6 6 6 6 5 5 5 6 6 7 4 4 3 3 4 -9999 -9999 -9999 -9999 -9999 -9999 -9999 -9999 -9999 -9999 5 6 6 6 7 7 7 6 6 5 5 5 5 5 4 3 4 4 -9999 -9999 -9999 -9999 -9999 -9999 -9999 -9999 -9999 -9999 -9999 -9999 -9999 -9999 -9999 -9999 -9999 -9999 -9999 -9999 -9999 -9999 -9999 -9999 -9999 -9999 -9999 -9999 -9999 -9999 -9999 -9999 -9999 -9999 -9999 -9999 -9999 -9999 -9999 -9999 -9999 -9999 -9999 -9999 -9999 -9999 -9999 -9999 -9999 -9999 -9999 -9999 -9999 -9999 -9999 -9999 -9999 -9999 -9999 -9999 -9999 -9999 -9999 -9999 -9999 -9999 -9999 -9999 -9999
-9999 -9999 -9999 -9999 -9999 -9999 -9999 -9999 -9999 -9999 -9999 -9999 -9999 -9999 -9999 -9999 -9999 -9999 -9999 -9999 -9999 -9999 -9999 -9999 -9999 -9999 -9999 -9999 -9999 -9999 -9999 -9999 -9999 -9999 -9999 -9999 -9999 -9999 -9999 -9999 -9999 -9999 -9999 -9999 -9999 -9999 -9999 -9999 -9999 -9999 -9999 14 30 88 112 137 200 189 224 269 130 64 53 44 33 32 35 49 121 127 24 4 12 6 7 10 8 7 8 7 21 23 9 6 7 7 11 16 46 46 6 7 8 13 36 28 70 40 17 18 23 47 204 45 74 178 286 311 317 188 129 112 100 88 85 107 190 302 176 97 97 84 76 75 67 61 53 48 43 40 37 35 34 31 28 26 23 22 21 19 18 16 14 13 11 9 5 4 4 4 3 4 5 6 4 6 5 4 4 4 4 6 7 5 4 4 4 4 5 4 4 4 4 5 6 7 7 7 6 6 6 7 6 5 4 4 4 5 4 5 4 4 -9999 -9999 -9999 -9999 -9999 -9999 -9999 -9999 -9999 -9999 -9999 -9999 -9999 -9999 6 6 6 7 7 7 6 6 5 4 5 4 4 3 3 3 3 -9999 -9999 -9999 -9999 -9999 -9999 -9999 -9999 -9999 -9999 -9999 -9999 -9999 -9999 -9999 -9999 -9999 -9999 -9999 -9999 -9999 -9999 -9999 -9999 -9999 -9999 -9999 -9999 -9999 -9999 -9999 -9999 -9999 -9999 -9999 -9999 -9999 -9999 -9999 -9999 -9999 -9999 -9999 -9999 -9999 -9999 -9999 -9999 -9999 -9999 -9999 -9999 -9999 -9999 -9999 -9999 -9999 -9999 -9999 -9999 -9999 -9999 -9999 -9999 -9999 -9999 -9999 -9999 -9999
-9999 -9999 -9999 -9999 -9999 -9999 -9999 -9999 -9999 -9999 -9999 -9999 -9999 -9999 -9999 -9999 -9999 -9999 -9999 -9999 -9999 -9999 -9999 -9999 -9999 -9999 -9999 -9999 -9999 -9999 -9999 -9999 -9999 -9999 -9999 -9999 -9999 -9999 -9999 -9999 -9999 -9999 -9999 -9999 -9999 -9999 -9999 -9999 -9999 -9999 -9999 -9999 8 14 29 72 83 214 194 222 166 86 49 39 27 25 20 27 88 87 19 7 7 8 5 -9999 -9999 -9999 7 15 20 22 9 14 10 4 6 3 6 26 23 6 7 21 43 85 96 24 22 18 28 70 252 149 115 311 338 341 331 274 152 113 87 85 118 92 163 201 260 200 154 158 92 87 80 66 57 50 46 43 41 43 40 34 29 26 24 22 21 19 17 16 14 12 10 9 7 5 4 3 3 3 4 6 4 4 6 4 4 4 4 6 5 5 4 4 4 4 5 3 5 4 5 4 5 7 5 6 7 7 7 7 6 4 4 -9999 4 4 3 3 -9999 -9999 -9999 -9999 -9999 -9999 -9999 -9999 -9999 -9999 -9999 -9999 -9999 -9999 -9999 -9999 -9999 6 6 6 6 6 5.428571 5 4 4 4 4 4 3 3 3 3 3 -9999 -9999 -9999 -9999 -9999 -9999 -9999 -9999 -9999 -9999 -9999 -9999 -9999 -9999 -9999 -9999 -9999 -9999 -9999 -9999 -9999 -9999 -9999 -9999 -9999 -9999 -9999 -9999 -9999 -9999 -9999 -9999 -9999 -9999 -9999 -9999 -9999 -9999 -9999 -9999 -9999 -9999 -9999 -9999 -9999 -9999 -9999 -9999 -9999 -9999 -9999 -9999 -9999 -9999 -9999 -9999 -9999 -9999 -9999 -9999 -9999 -9999 -9999 -9999 -9999 -9999 -9999 -9999
